0.8600101, -1.78962, 5.439247
0.8599266, -1.785322, 5.441209
0.8598431, -1.781024, 5.443172
0.8637124, -1.778311, 5.450774
0.8715332, -1.777124, 5.464044
0.8714486, -1.772768, 5.466033
0.8713639, -1.768411, 5.468022
0.8712794, -1.764055, 5.470011
0.8711947, -1.759699, 5.472
0.879011, -1.75828, 5.485375
0.8873901, -1.75699, 5.499601
0.8918178, -1.754188, 5.508154
0.8917312, -1.749729, 5.51019
0.8955936, -1.746662, 5.517954
0.9045318, -1.745319, 5.533113
0.904444, -1.740797, 5.535178
0.908304, -1.737607, 5.542998
0.9127271, -1.734567, 5.55166
0.9126385, -1.730003, 5.553743
-0.01717546, -1.425081, -1000
-0.01717546, -1.425081, -1000
-0.01717546, -1.425081, -1000
-0.01717546, -1.425081, -1000
-0.01717546, -1.425081, -1000
-0.01717546, -1.425081, -1000
-0.01717546, -1.425081, -1000
1.038702, -1.730114, 5.75825
1.038602, -1.724928, 5.760618
1.038501, -1.719741, 5.762986
-0.01717546, -1.425081, -1000
1.073219, -1.718773, 5.819795
1.073115, -1.713414, 5.822242
1.054991, -1.703379, 5.797731
1.054889, -1.698109, 5.800137
1.054786, -1.692839, 5.802543
1.313079, -1.750848, 6.193356
1.312952, -1.744308, 6.196342
1.322393, -1.740017, 6.213757
1.322265, -1.73343, 6.216764
1.34127, -1.731154, 6.248714
1.410913, -1.739851, 6.357477
-0.01717546, -1.425081, -1000
-0.01717546, -1.425081, -1000
-0.01717546, -1.425081, -1000
-0.01717546, -1.425081, -1000
-0.01717546, -1.425081, -1000
0.4399686, -1.863094, 4.717048
0.4410729, -1.861982, 4.719371
0.4410299, -1.859771, 4.720381
0.440987, -1.857559, 4.72139
0.4443842, -1.858579, 4.726369
0.4489274, -1.860637, 4.73269
0.4488837, -1.858386, 4.733717
0.4528525, -1.859848, 4.739402
0.4596862, -1.863907, 4.748438
0.4642262, -1.865802, 4.754833
0.4653272, -1.864521, 4.757233
0.4652819, -1.86219, 4.758297
0.4652366, -1.85986, 4.759361
0.4680558, -1.860098, 4.76379
0.4851951, -1.873078, 4.785087
0.4851479, -1.870651, 4.786195
0.4942643, -1.876308, 4.798132
0.496507, -1.875847, 4.801972
0.4964588, -1.873364, 4.803106
0.4981283, -1.872372, 4.806281
0.4980799, -1.869881, 4.807418
0.4980315, -1.86739, 4.808556
0.50199, -1.86832, 4.814483
0.5059476, -1.869211, 4.820429
0.5058984, -1.866682, 4.821584
0.5058493, -1.864152, 4.822739
0.5098054, -1.864966, 4.82872
0.5126166, -1.864791, 4.833337
0.5125668, -1.862228, 4.834507
-0.01717546, -1.425081, -1000
-0.01717546, -1.425081, -1000
0.5255715, -1.865206, 4.854019
0.5255205, -1.862579, 4.855218
0.5254695, -1.859953, 4.856417
0.5299925, -1.86097, 4.863213
0.5327995, -1.860585, 4.867926
0.5327479, -1.857922, 4.869141
0.5361257, -1.857943, 4.874577
0.540646, -1.858819, 4.881436
0.5428794, -1.857884, 4.885493
0.5428268, -1.855172, 4.886731
0.5479165, -1.856384, 4.894345
0.5512912, -1.856247, 4.899852
0.5540941, -1.855646, 4.904664
0.5540403, -1.852878, 4.905928
0.5574136, -1.85266, 4.911472
0.5624994, -1.853676, 4.919175
0.5675844, -1.854643, 4.926901
0.5675293, -1.851808, 4.928195
0.5708999, -1.851458, 4.9338
0.5725573, -1.849841, 4.937261
0.5725017, -1.846982, 4.938566
0.5747293, -1.845745, 4.94276
0.5763857, -1.844084, 4.946241
0.581466, -1.844806, 4.954079
0.5814096, -1.841903, 4.955404
0.5887706, -1.844129, 4.966185
0.6001239, -1.849026, 4.982099
0.6143273, -1.855758, 5.001712
0.615979, -1.853853, 5.005304
0.6159194, -1.850781, 5.006706
-0.01717546, -1.425081, -1000
0.6215025, -1.848416, 5.016861
0.6214423, -1.845316, 5.018276
0.6213821, -1.842216, 5.019691
-0.01717546, -1.425081, -1000
0.6406428, -1.848491, 5.04768
0.6405807, -1.845297, 5.049139
0.6405187, -1.842103, 5.050597
0.6495746, -1.844647, 5.063954
0.6563495, -1.845679, 5.074373
0.656286, -1.842407, 5.075867
0.6562225, -1.839136, 5.07736
0.6607162, -1.838645, 5.084845
0.6703354, -1.841212, 5.099099
0.6702706, -1.837872, 5.100624
0.6770396, -1.838602, 5.11118
0.687224, -1.841284, 5.12629
0.6945596, -1.842198, 5.13767
0.6967697, -1.840062, 5.142275
0.6967022, -1.836592, 5.143859
0.7046041, -1.837676, 5.156069
0.7045359, -1.834167, 5.157671
0.7044677, -1.830657, 5.159273
0.7072449, -1.828733, 5.164689
0.7094525, -1.826467, 5.169353
0.7093838, -1.822933, 5.170967
0.7093152, -1.819398, 5.172581
0.7092465, -1.815864, 5.174194
0.7091779, -1.81233, 5.175808
0.7068343, -1.807593, 5.174341
0.7067659, -1.80407, 5.175949
0.7066974, -1.800547, 5.177558
-0.01717546, -1.425081, -1000
-0.01717546, -1.425081, -1000
-0.01717546, -1.425081, -1000
-0.01717546, -1.425081, -1000
-0.01717546, -1.425081, -1000
-0.01717546, -1.425081, -1000
-0.01717546, -1.425081, -1000
0.8027449, -1.818737, 5.323522
0.8026673, -1.814743, 5.325346
0.8025897, -1.810749, 5.327169
0.8093287, -1.809929, 5.338433
0.8092505, -1.805902, 5.340271
0.8091723, -1.801875, 5.34211
0.8090941, -1.797848, 5.343948
0.8192368, -1.798383, 5.360039
0.8265386, -1.797564, 5.37221
0.8264587, -1.793452, 5.374087
0.8337585, -1.792525, 5.386307
0.8410569, -1.791527, 5.39856
0.8409756, -1.787342, 5.400471
0.8448669, -1.784815, 5.407977
0.8561344, -1.785292, 5.425908
0.8560516, -1.781033, 5.427853
0.8559689, -1.776773, 5.429798
0.8638282, -1.775674, 5.443004
0.8711188, -1.774275, 5.45544
0.8710346, -1.76994, 5.457418
0.8754875, -1.767346, 5.465863
0.8754029, -1.762989, 5.467852
0.8753182, -1.758633, 5.469841
0.8792024, -1.75574, 5.477514
0.8915896, -1.755905, 5.497403
0.8960382, -1.753097, 5.505944
0.8959516, -1.748638, 5.50798
0.8998324, -1.745566, 5.515735
0.9037123, -1.742455, 5.523508
0.9036249, -1.737957, 5.525561
0.9080703, -1.734978, 5.534181
0.9125149, -1.731954, 5.542821
0.9124267, -1.727412, 5.544895
-0.01717546, -1.425081, -1000
-0.01717546, -1.425081, -1000
-0.01717546, -1.425081, -1000
0.9347246, -1.716172, 5.586326
0.9346342, -1.711519, 5.588449
0.9345438, -1.706867, 5.590574
0.9384162, -1.703368, 5.598523
0.9479485, -1.701452, 5.614825
0.9529508, -1.698166, 5.624492
0.9528586, -1.693423, 5.626658
1.03086, -1.709902, 5.744365
1.03076, -1.704776, 5.746705
1.030661, -1.69965, 5.749045
1.059979, -1.70209, 5.795119
1.059877, -1.69682, 5.797525
1.059775, -1.69155, 5.799932
1.319269, -1.749248, 6.190115
1.319142, -1.742708, 6.193101
1.328628, -1.738406, 6.210492
1.3285, -1.731819, 6.2135
1.083008, -1.670498, 5.847656
1.082903, -1.665112, 5.850115
1.082798, -1.659726, 5.852574
1.089476, -1.655754, 5.865277
1.089371, -1.650335, 5.867752
1.089266, -1.644915, 5.870226
1.207818, -1.662493, 6.052768
0.4420566, -1.862555, 4.715955
0.4431661, -1.861441, 4.718275
0.4431231, -1.85923, 4.719285
0.4430802, -1.857018, 4.720294
0.4464931, -1.858034, 4.725266
0.4510573, -1.860086, 4.731575
0.4510136, -1.857836, 4.732602
0.4550007, -1.859293, 4.738277
0.4618658, -1.863344, 4.747297
0.4664268, -1.865233, 4.753681
0.467533, -1.863951, 4.756078
0.4674878, -1.86162, 4.757142
0.4674425, -1.85929, 4.758206
0.4702747, -1.859524, 4.762628
0.4874927, -1.872484, 4.783884
0.4874455, -1.870057, 4.784992
0.4966038, -1.875704, 4.796907
0.4977064, -1.874236, 4.799389
0.4976583, -1.871758, 4.80052
0.5004861, -1.871763, 4.805047
0.501588, -1.870259, 4.807545
0.5015395, -1.867763, 4.808685
0.5066662, -1.869658, 4.815971
0.509492, -1.869563, 4.820544
0.5094427, -1.867028, 4.821701
0.5093935, -1.864493, 4.822859
0.5093443, -1.861957, 4.824016
0.5167668, -1.865586, 4.834135
-0.01717546, -1.425081, -1000
-0.01717546, -1.425081, -1000
-0.01717546, -1.425081, -1000
0.5297813, -1.865953, 4.8548
0.5297301, -1.863318, 4.856003
0.5296789, -1.860683, 4.857206
0.5307765, -1.858958, 4.859806
0.5370427, -1.86129, 4.868704
0.5369909, -1.858619, 4.869924
0.5380874, -1.856841, 4.872547
0.5443512, -1.859045, 4.881504
0.5471691, -1.858543, 4.886262
0.5471163, -1.855823, 4.887505
0.5505074, -1.855714, 4.892989
0.5521761, -1.854275, 4.896363
0.5567139, -1.854969, 4.903293
0.5566601, -1.852201, 4.904556
0.5600491, -1.851979, 4.910092
0.5651585, -1.852989, 4.917783
0.570267, -1.853949, 4.925497
0.570212, -1.851115, 4.926791
0.5735983, -1.850761, 4.932387
0.573543, -1.84791, 4.933689
0.5734876, -1.845059, 4.93499
0.577446, -1.845043, 4.941338
0.5791103, -1.84338, 4.944815
0.5842142, -1.844096, 4.95264
0.5841578, -1.841193, 4.953966
0.5915529, -1.84341, 4.964728
0.6069704, -1.851032, 4.985705
0.6126427, -1.851901, 4.994366
0.6171678, -1.851944, 5.001592
0.6171083, -1.848881, 5.002991
-0.01717546, -1.425081, -1000
0.6244366, -1.847658, 5.015325
0.6243764, -1.844558, 5.01674
0.6243162, -1.841458, 5.018155
-0.01717546, -1.425081, -1000
0.6459566, -1.849175, 5.049052
0.6458943, -1.84597, 5.050515
0.6458321, -1.842765, 5.051978
0.6526397, -1.843855, 5.06235
0.6594461, -1.844879, 5.072752
0.6593826, -1.841607, 5.074245
0.659319, -1.838336, 5.075739
0.6638337, -1.837839, 5.083212
0.6757864, -1.841771, 5.100438
0.6854482, -1.844222, 5.114718
0.6853822, -1.840823, 5.11627
0.6904647, -1.840446, 5.124594
0.6926863, -1.838355, 5.129172
0.6926196, -1.83492, 5.13074
0.6999875, -1.835743, 5.142139
0.7027793, -1.833895, 5.147512
0.7049989, -1.831699, 5.152138
0.7049309, -1.828203, 5.153734
0.704863, -1.824707, 5.15533
0.7076533, -1.82278, 5.160739
0.7075851, -1.81927, 5.162341
0.7046593, -1.81422, 5.160118
0.7045915, -1.810725, 5.161714
0.7045236, -1.807229, 5.16331
0.7021702, -1.802534, 5.16183
0.7021025, -1.79905, 5.163421
0.7020348, -1.795565, 5.165012
0.701396, -1.791789, 5.16583
0.7013283, -1.788307, 5.16742
0.7012607, -1.784825, 5.169009
-0.01717546, -1.425081, -1000
-0.01717546, -1.425081, -1000
-0.01717546, -1.425081, -1000
-0.01717546, -1.425081, -1000
-0.01717546, -1.425081, -1000
-0.01717546, -1.425081, -1000
-0.01717546, -1.425081, -1000
-0.01717546, -1.425081, -1000
0.8130623, -1.804917, 5.338276
0.812984, -1.80089, 5.340115
0.8129058, -1.796863, 5.341953
0.8230957, -1.797385, 5.358019
0.8304316, -1.796558, 5.370172
0.8195152, -1.787748, 5.356984
0.8194364, -1.783688, 5.358838
0.8193575, -1.779628, 5.360691
0.8261208, -1.778434, 5.372106
0.8374438, -1.779064, 5.389934
0.8407837, -1.776315, 5.396623
0.8407028, -1.77215, 5.398525
0.8406219, -1.767984, 5.400427
0.8445303, -1.765394, 5.407949
0.844449, -1.76121, 5.409861
0.8551941, -1.761196, 5.427076
-0.01717546, -1.425081, -1000
0.870981, -1.758713, 5.453572
0.8708972, -1.754399, 5.455542
0.8708134, -1.750084, 5.457512
0.8872461, -1.751734, 5.483026
0.8871607, -1.747339, 5.485033
0.8956168, -1.745946, 5.499255
0.9000855, -1.743089, 5.507806
0.9079694, -1.741355, 5.521279
0.9078821, -1.736857, 5.523333
0.9123484, -1.733872, 5.531941
0.9168139, -1.730843, 5.540571
0.9167257, -1.726301, 5.542644
0.9211899, -1.723206, 5.551304
0.9256532, -1.720066, 5.559983
0.9255641, -1.71548, 5.562078
0.9300262, -1.712274, 5.570787
0.9339185, -1.708853, 5.57869
0.9338287, -1.704226, 5.580802
0.9337388, -1.699598, 5.582915
0.9381983, -1.696262, 5.591684
0.9381079, -1.691612, 5.593807
0.9425662, -1.688209, 5.602607
0.9475921, -1.684915, 5.612263
0.9475008, -1.680218, 5.614408
0.9519569, -1.676702, 5.623259
-0.01717546, -1.425081, -1000
-0.01717546, -1.425081, -1000
-0.01717546, -1.425081, -1000
-0.01717546, -1.425081, -1000
-0.01717546, -1.425081, -1000
-0.01717546, -1.425081, -1000
-0.01717546, -1.425081, -1000
1.088106, -1.669181, 5.844987
1.088001, -1.663795, 5.847446
1.087897, -1.658408, 5.849905
1.094606, -1.654428, 5.862592
1.0945, -1.649009, 5.865066
1.094395, -1.64359, 5.86754
1.213497, -1.661025, 6.049795
0.4441446, -1.862015, 4.714862
0.4452593, -1.8609, 4.717179
0.4452163, -1.858689, 4.718189
0.4451734, -1.856477, 4.719199
0.4486021, -1.857489, 4.724161
0.4543443, -1.860604, 4.73178
0.4606639, -1.864197, 4.740085
0.4606195, -1.86191, 4.741129
0.4652023, -1.863833, 4.747484
0.4674708, -1.863618, 4.751198
0.4674257, -1.861298, 4.752257
0.4673807, -1.858979, 4.753316
0.468492, -1.85769, 4.755713
0.4724937, -1.858951, 4.761466
0.4845876, -1.867305, 4.776638
0.489743, -1.869463, 4.78379
0.4948976, -1.871571, 4.790964
0.49485, -1.869119, 4.792084
0.500003, -1.871153, 4.799292
0.5028439, -1.871154, 4.803812
0.503951, -1.869648, 4.806308
0.5039025, -1.867152, 4.807447
0.5078975, -1.868067, 4.813358
0.5107365, -1.867974, 4.817922
0.5118425, -1.866408, 4.820445
0.5117933, -1.863872, 4.821602
0.511744, -1.861337, 4.82276
0.5174685, -1.863537, 4.830796
0.5174187, -1.860974, 4.831966
-0.01717546, -1.425081, -1000
-0.01717546, -1.425081, -1000
0.5305439, -1.863921, 4.851416
0.5304928, -1.861294, 4.852615
0.5304418, -1.858668, 4.853814
0.5332758, -1.858312, 4.858497
0.53784, -1.859282, 4.865287
0.5377883, -1.856619, 4.866502
0.5406207, -1.856186, 4.871221
0.5469133, -1.858383, 4.880163
0.5480142, -1.856557, 4.882805
0.5479615, -1.853845, 4.884043
0.5548282, -1.856349, 4.893749
0.5547749, -1.853603, 4.895002
0.5610632, -1.855579, 4.904046
0.5610093, -1.852803, 4.905313
0.5644137, -1.852569, 4.910844
0.5678176, -1.852302, 4.916391
0.5746785, -1.85451, 4.926232
0.5746233, -1.851668, 4.92753
0.5745681, -1.848825, 4.928827
0.5762413, -1.847212, 4.932276
0.5761859, -1.844362, 4.933578
0.5818908, -1.845554, 4.942074
0.5835629, -1.84388, 4.945551
0.5869623, -1.843386, 4.951201
0.5869059, -1.840483, 4.952527
0.6000931, -1.846624, 4.970518
0.6057931, -1.847561, 4.97913
0.6097648, -1.84728, 4.985587
0.6148872, -1.847731, 4.993519
0.6148281, -1.844692, 4.994906
-0.01717546, -1.425081, -1000
0.6193139, -1.841627, 5.003538
0.6192545, -1.838565, 5.004936
0.619195, -1.835504, 5.006333
-0.01717546, -1.425081, -1000
0.6535925, -1.851315, 5.053361
0.6535298, -1.848088, 5.054834
0.6534671, -1.844861, 5.056308
0.6580054, -1.844492, 5.063709
0.6625427, -1.844078, 5.071131
0.6624792, -1.840807, 5.072625
0.6624156, -1.837535, 5.074118
0.6669512, -1.837033, 5.08158
0.678959, -1.840951, 5.098777
0.6886653, -1.843391, 5.113034
0.6885993, -1.839992, 5.114585
0.6937054, -1.839609, 5.122897
0.6959374, -1.837515, 5.12747
0.6958707, -1.83408, 5.129038
0.7032727, -1.834894, 5.140419
0.7060776, -1.833043, 5.145785
0.7083076, -1.830843, 5.150406
0.7082397, -1.827348, 5.152001
0.7081718, -1.823852, 5.153598
0.7109752, -1.821921, 5.158999
0.710907, -1.818412, 5.160602
0.7079681, -1.813365, 5.158385
0.7079002, -1.80987, 5.159982
0.7078323, -1.806374, 5.161577
0.7054685, -1.801682, 5.160103
0.7054008, -1.798197, 5.161694
0.7053331, -1.794713, 5.163285
0.7046916, -1.790937, 5.164104
0.704624, -1.787455, 5.165694
0.7045564, -1.783974, 5.167284
-0.01717546, -1.425081, -1000
-0.01717546, -1.425081, -1000
-0.01717546, -1.425081, -1000
-0.01717546, -1.425081, -1000
-0.01717546, -1.425081, -1000
-0.01717546, -1.425081, -1000
-0.01717546, -1.425081, -1000
-0.01717546, -1.425081, -1000
0.816874, -1.803932, 5.33628
0.8167958, -1.799905, 5.338119
0.8167176, -1.795878, 5.339957
0.8269547, -1.796388, 5.355998
0.8343246, -1.795552, 5.368133
0.8233585, -1.786755, 5.354972
0.8232796, -1.782695, 5.356825
0.8232008, -1.778635, 5.358679
0.8299955, -1.777433, 5.370077
0.8413709, -1.778049, 5.387877
0.8447264, -1.775296, 5.394559
0.8446456, -1.771131, 5.396461
0.8445647, -1.766965, 5.398363
0.8484914, -1.764371, 5.405876
0.8484102, -1.760186, 5.407786
0.8592049, -1.760159, 5.424977
-0.01717546, -1.425081, -1000
0.8750652, -1.757658, 5.451434
0.8749814, -1.753343, 5.453403
0.8748976, -1.749028, 5.455374
0.8914063, -1.750659, 5.480848
0.8913209, -1.746264, 5.482855
0.8998163, -1.744861, 5.497057
0.904306, -1.741998, 5.505597
0.9122266, -1.740254, 5.51905
0.9121392, -1.735757, 5.521104
0.9166265, -1.732767, 5.529702
0.921113, -1.729732, 5.53832
0.9210247, -1.72519, 5.540393
0.9255099, -1.722089, 5.549042
0.9299942, -1.718944, 5.557711
0.9299051, -1.714358, 5.559805
0.9343881, -1.711146, 5.568504
0.9382988, -1.707721, 5.576396
0.9382089, -1.703094, 5.578509
0.9381191, -1.698466, 5.580622
0.9425995, -1.695124, 5.58938
0.9425092, -1.690475, 5.591503
0.9469883, -1.687066, 5.600292
0.9520379, -1.683766, 5.609936
0.9519466, -1.67907, 5.61208
0.9564236, -1.675548, 5.620921
0.9614707, -1.672126, 5.63062
0.9762224, -1.671058, 5.654614
0.9761289, -1.666242, 5.656813
0.9857391, -1.663735, 5.673327
1.001055, -1.662465, 5.698318
1.01751, -1.661306, 5.725066
1.000863, -1.65259, 5.702826
1.000767, -1.647652, 5.705081
1.000672, -1.642714, 5.707335
1.022825, -1.642426, 5.742727
1.056382, -1.644252, 5.795236
1.068259, -1.64143, 5.81551
1.068157, -1.636163, 5.817914
1.068054, -1.630896, 5.820319
0.4462326, -1.861475, 4.713769
0.4473525, -1.860359, 4.716084
0.4473096, -1.858148, 4.717093
0.4495917, -1.858093, 4.720727
0.450711, -1.856944, 4.723057
0.4564794, -1.860053, 4.730662
0.4663146, -1.866823, 4.742912
0.467432, -1.865577, 4.745286
0.4673872, -1.863268, 4.74634
0.4696662, -1.86305, 4.750049
0.4696211, -1.860731, 4.751108
0.4695761, -1.858412, 4.752167
0.4706926, -1.857121, 4.754561
0.4869082, -1.86912, 4.774351
0.4868616, -1.866718, 4.775447
0.4920406, -1.868869, 4.782587
0.4972187, -1.870971, 4.789749
0.4971711, -1.868519, 4.790868
0.5023477, -1.870547, 4.798065
0.5052017, -1.870544, 4.802578
0.506314, -1.869038, 4.80507
0.5062656, -1.866541, 4.806211
0.5102789, -1.867451, 4.812112
0.513131, -1.867355, 4.816668
0.5142422, -1.865787, 4.819189
0.5141929, -1.863252, 4.820346
0.5141437, -1.860717, 4.821504
0.5198944, -1.86291, 4.829526
0.5198446, -1.860347, 4.830697
-0.01717546, -1.425081, -1000
-0.01717546, -1.425081, -1000
0.53303, -1.863278, 4.850114
0.532979, -1.860652, 4.851313
0.532928, -1.858025, 4.852512
0.5357751, -1.857666, 4.857189
0.5403603, -1.858631, 4.863967
0.5403085, -1.855968, 4.865183
0.5431541, -1.855531, 4.869895
0.5494754, -1.857721, 4.878821
0.5505816, -1.855893, 4.881461
0.5505289, -1.853181, 4.882699
0.557427, -1.855677, 4.892388
0.5573737, -1.852932, 4.893642
0.5636908, -1.8549, 4.90267
0.5636369, -1.852124, 4.903937
0.5670571, -1.851886, 4.909461
0.5704767, -1.851615, 4.914999
0.577369, -1.853815, 4.924823
0.5773138, -1.850973, 4.926121
0.5772586, -1.84813, 4.927419
0.5789397, -1.846515, 4.930863
0.5788843, -1.843664, 4.932165
0.5846154, -1.84485, 4.940648
0.5862952, -1.843174, 4.94412
0.5897105, -1.842676, 4.949762
0.589654, -1.839772, 4.951088
0.6029016, -1.845898, 4.969047
0.6086277, -1.846829, 4.977646
0.6126177, -1.846543, 4.984094
0.6177637, -1.846987, 4.992013
0.6177046, -1.843948, 4.9934
-0.01717546, -1.425081, -1000
0.6222114, -1.840878, 5.002021
0.622152, -1.837817, 5.003419
0.6220925, -1.834756, 5.004817
-0.01717546, -1.425081, -1000
0.6566471, -1.850526, 5.051762
0.6565844, -1.847299, 5.053235
0.6565218, -1.844072, 5.054708
0.661081, -1.843697, 5.062099
0.6656393, -1.843278, 5.06951
0.6655757, -1.840007, 5.071003
0.6655122, -1.836735, 5.072497
0.6700688, -1.836228, 5.079948
0.6821315, -1.840131, 5.097116
0.6918824, -1.842559, 5.111349
0.6918164, -1.83916, 5.112901
0.6940595, -1.837099, 5.117452
0.6991885, -1.836674, 5.125768
0.6991218, -1.83324, 5.127336
0.7065579, -1.834044, 5.1387
0.7093759, -1.832191, 5.144058
0.7116164, -1.829988, 5.148674
0.7115485, -1.826493, 5.15027
0.7114806, -1.822997, 5.151865
0.7142971, -1.821063, 5.15726
0.7142289, -1.817553, 5.158863
0.7112769, -1.81251, 5.156653
0.711209, -1.809014, 5.158249
0.7111411, -1.805519, 5.159845
0.7087668, -1.800829, 5.158377
0.7086991, -1.797345, 5.159967
0.7086314, -1.79386, 5.161558
0.7079873, -1.790085, 5.162379
0.7079197, -1.786604, 5.163969
0.7078521, -1.783122, 5.165559
-0.01717546, -1.425081, -1000
-0.01717546, -1.425081, -1000
-0.01717546, -1.425081, -1000
-0.01717546, -1.425081, -1000
-0.01717546, -1.425081, -1000
-0.01717546, -1.425081, -1000
-0.01717546, -1.425081, -1000
-0.01717546, -1.425081, -1000
-0.01717546, -1.425081, -1000
-0.01717546, -1.425081, -1000
-0.01717546, -1.425081, -1000
-0.01717546, -1.425081, -1000
-0.01717546, -1.425081, -1000
0.8272017, -1.785762, 5.35296
0.8271229, -1.781702, 5.354814
0.827044, -1.777641, 5.356667
0.8338701, -1.776432, 5.368049
0.8337906, -1.772338, 5.369917
0.8337111, -1.768245, 5.371786
0.8336316, -1.764151, 5.373655
0.8335521, -1.760058, 5.375524
0.8334726, -1.755964, 5.377393
0.8368437, -1.753196, 5.384071
0.8367639, -1.749086, 5.385948
0.836684, -1.744976, 5.387824
0.8791494, -1.756602, 5.449296
0.8790656, -1.752287, 5.451265
0.8789818, -1.747972, 5.453236
0.8955665, -1.749584, 5.47867
0.8954812, -1.745188, 5.480677
0.9040158, -1.743775, 5.494858
0.9085265, -1.740907, 5.503387
0.9164837, -1.739154, 5.516821
0.9163964, -1.734657, 5.518875
0.9209046, -1.731661, 5.527462
0.9254121, -1.728621, 5.536069
0.9253238, -1.724079, 5.538143
0.92983, -1.720973, 5.546781
0.9343351, -1.717822, 5.555438
0.9342461, -1.713236, 5.557532
0.93875, -1.710019, 5.56622
0.9380865, -1.705242, 5.567499
0.937997, -1.700637, 5.569601
0.9379076, -1.696031, 5.571704
0.9424095, -1.692706, 5.580441
0.9423196, -1.688079, 5.582554
0.9468201, -1.684687, 5.591322
0.9513198, -1.681252, 5.60011
0.951229, -1.676579, 5.602243
0.9608904, -1.674393, 5.618582
0.965961, -1.670966, 5.628269
0.9704571, -1.667347, 5.63714
0.9703646, -1.662581, 5.639317
0.9748595, -1.658896, 5.648218
0.9747665, -1.654108, 5.650404
0.9746734, -1.64932, 5.65259
0.9745805, -1.644532, 5.654777
0.9796464, -1.64086, 5.664575
0.9795529, -1.636047, 5.666772
0.9897753, -1.633368, 5.684238
1.026929, -1.636031, 5.741681
1.031989, -1.632005, 5.75164
1.03189, -1.626937, 5.753954
1.05528, -1.626276, 5.791255
0.4483205, -1.860936, 4.712676
0.4494457, -1.859818, 4.714988
0.4494027, -1.857607, 4.715997
0.4516954, -1.857549, 4.719626
0.4528199, -1.856399, 4.721953
0.4586146, -1.859501, 4.729544
0.4684943, -1.86626, 4.741771
0.4696169, -1.865012, 4.744142
0.4695721, -1.862703, 4.745196
0.4695272, -1.860395, 4.74625
0.4706495, -1.859125, 4.748631
0.4706045, -1.856812, 4.749688
0.4728932, -1.856552, 4.753409
0.4850987, -1.864956, 4.768488
0.4850524, -1.862573, 4.769576
0.4955047, -1.869286, 4.782724
0.4995398, -1.870372, 4.788534
0.4994922, -1.867919, 4.789653
0.5046924, -1.869941, 4.796837
0.5087256, -1.870924, 4.802694
0.5098431, -1.86941, 4.805186
0.5097945, -1.866908, 4.806328
0.5097458, -1.864406, 4.807471
0.5137771, -1.865286, 4.813374
0.5166419, -1.865167, 4.817932
0.5165927, -1.862632, 4.819089
0.5194567, -1.862471, 4.823667
0.5211551, -1.861339, 4.826886
0.5211054, -1.858781, 4.828053
0.5251333, -1.85949, 4.834035
0.5250832, -1.856913, 4.835212
0.5355162, -1.862636, 4.848812
0.5354652, -1.860009, 4.850011
0.5354142, -1.857383, 4.851211
0.5382743, -1.85702, 4.85588
0.5411339, -1.856629, 4.860562
0.5410824, -1.853975, 4.861774
0.5468515, -1.855765, 4.869964
0.5520376, -1.857059, 4.87748
0.553149, -1.85523, 4.880116
0.5530963, -1.852517, 4.881355
0.5600259, -1.855006, 4.891028
0.5617179, -1.853552, 4.894394
0.5645732, -1.852937, 4.899178
0.5645195, -1.85017, 4.900442
0.5697004, -1.851203, 4.908077
0.5748805, -1.852186, 4.915734
0.5800596, -1.85312, 4.923415
0.5800043, -1.850277, 4.924713
0.5799491, -1.847435, 4.92601
0.5833822, -1.847043, 4.931593
0.5833266, -1.844184, 4.932899
0.5908276, -1.846563, 4.943522
0.5965834, -1.84767, 4.952024
0.5982702, -1.84594, 4.955517
0.5982133, -1.843009, 4.956855
0.6016426, -1.842429, 4.962524
0.6097193, -1.844929, 4.973993
0.6154707, -1.845806, 4.9826
0.6206402, -1.846244, 4.990507
0.6205812, -1.843205, 4.991894
-0.01717546, -1.425081, -1000
0.6251089, -1.840129, 5.000504
0.6250494, -1.837068, 5.001902
0.62499, -1.834007, 5.0033
-0.01717546, -1.425081, -1000
0.6597018, -1.849736, 5.050163
0.6596391, -1.846509, 5.051636
0.6595765, -1.843282, 5.05311
0.6641566, -1.842902, 5.060489
0.6687359, -1.842478, 5.067889
0.6686723, -1.839206, 5.069382
0.6686088, -1.835935, 5.070876
0.6755068, -1.836801, 5.081289
0.6876244, -1.84068, 5.098434
0.6927793, -1.840371, 5.106682
0.6927135, -1.836983, 5.108228
0.6972871, -1.836265, 5.115762
0.7047591, -1.837158, 5.127064
0.7128096, -1.838307, 5.13915
0.7127419, -1.834823, 5.14074
0.7126742, -1.831338, 5.142332
0.7126065, -1.827854, 5.143922
0.7125388, -1.824369, 5.145514
0.7176871, -1.823714, 5.153919
0.7176189, -1.820204, 5.155521
0.7175508, -1.816695, 5.157124
0.7145857, -1.811655, 5.154921
0.7145178, -1.808159, 5.156517
0.7144499, -1.804664, 5.158113
0.709169, -1.798488, 5.152826
0.7091016, -1.795017, 5.15441
0.7090341, -1.791547, 5.155995
0.711283, -1.789234, 5.160654
0.7112154, -1.785752, 5.162243
-0.01717546, -1.425081, -1000
-0.01717546, -1.425081, -1000
-0.01717546, -1.425081, -1000
0.7080509, -1.770447, 5.164728
0.7079836, -1.766979, 5.166311
0.7079162, -1.76351, 5.167894
-0.01717546, -1.425081, -1000
-0.01717546, -1.425081, -1000
-0.01717546, -1.425081, -1000
-0.01717546, -1.425081, -1000
-0.01717546, -1.425081, -1000
-0.01717546, -1.425081, -1000
-0.01717546, -1.425081, -1000
-0.01717546, -1.425081, -1000
-0.01717546, -1.425081, -1000
-0.01717546, -1.425081, -1000
-0.01717546, -1.425081, -1000
-0.01717546, -1.425081, -1000
0.8376653, -1.771337, 5.367889
0.8375858, -1.767243, 5.369758
0.8375063, -1.76315, 5.371627
0.8374268, -1.759056, 5.373496
0.8373473, -1.754963, 5.375364
0.8407341, -1.752191, 5.382034
0.8406543, -1.748081, 5.383911
0.8405744, -1.743971, 5.385787
-0.01717546, -1.425081, -1000
0.8438798, -1.737006, 5.394372
0.8437997, -1.732879, 5.396256
0.8437195, -1.728752, 5.39814
-0.01717546, -1.425081, -1000
-0.01717546, -1.425081, -1000
0.8988934, -1.735128, 5.4817
0.8988081, -1.730735, 5.483706
0.8987228, -1.726343, 5.485711
-0.01717546, -1.425081, -1000
-0.01717546, -1.425081, -1000
-0.01717546, -1.425081, -1000
-0.01717546, -1.425081, -1000
0.9432909, -1.718108, 5.559729
0.9432015, -1.7135, 5.561832
0.943112, -1.708892, 5.563937
0.9424458, -1.704116, 5.565217
0.9423563, -1.69951, 5.567319
0.9422669, -1.694905, 5.569422
0.9467897, -1.691574, 5.578148
0.9466999, -1.686947, 5.580261
0.9512213, -1.68355, 5.589018
0.955742, -1.680109, 5.597795
0.9556513, -1.675437, 5.599928
0.9653571, -1.673239, 5.616244
0.9704513, -1.669805, 5.625918
0.9749684, -1.666181, 5.634779
0.9748759, -1.661415, 5.636955
0.9793917, -1.657725, 5.645845
0.9792987, -1.652937, 5.648031
0.9792057, -1.648149, 5.650218
0.9791127, -1.64336, 5.652404
0.9842021, -1.639683, 5.662189
0.9841087, -1.63487, 5.664387
0.9943783, -1.632178, 5.681829
1.031703, -1.634797, 5.739182
1.036785, -1.630765, 5.749129
1.036687, -1.625697, 5.751443
1.060184, -1.625009, 5.788688
0.4504085, -1.860396, 4.711583
0.4509523, -1.858734, 4.713241
0.451496, -1.857066, 4.714901
0.452626, -1.85593, 4.717218
0.4654852, -1.865486, 4.732635
0.468373, -1.86587, 4.736955
0.4718466, -1.866755, 4.741944
0.4718018, -1.864447, 4.742998
0.471757, -1.862139, 4.744052
0.4717121, -1.85983, 4.745106
0.4728396, -1.858559, 4.747485
0.4727947, -1.856246, 4.748541
0.4750938, -1.855983, 4.752257
0.4803225, -1.85825, 4.759314
0.4802769, -1.855901, 4.760386
0.4802312, -1.853551, 4.761459
0.5030326, -1.870775, 4.788658
0.5029849, -1.868318, 4.789781
0.5029371, -1.86586, 4.790903
0.5081604, -1.867845, 4.798088
0.5122113, -1.868798, 4.803946
0.5121627, -1.866296, 4.805089
0.5121142, -1.863794, 4.806231
0.5138219, -1.862739, 4.80941
0.5137731, -1.860229, 4.810555
0.5178217, -1.861058, 4.816471
0.520699, -1.860899, 4.821038
0.5235758, -1.860713, 4.825619
0.5235261, -1.858155, 4.826787
0.5275722, -1.85886, 4.832758
0.5275222, -1.856283, 4.833935
-0.01717546, -1.425081, -1000
0.5408762, -1.861655, 4.85216
0.5408249, -1.859014, 4.853366
0.5407736, -1.856374, 4.854571
0.5436463, -1.85598, 4.859247
0.5435948, -1.853326, 4.860458
0.5493901, -1.855109, 4.868635
0.5545998, -1.856397, 4.876139
0.5574701, -1.855881, 4.880869
0.5574173, -1.85316, 4.882112
0.5626247, -1.854334, 4.889667
0.5643246, -1.852878, 4.893029
0.567193, -1.85226, 4.897807
0.5671392, -1.849493, 4.89907
0.5723438, -1.85052, 4.906693
0.5793001, -1.852754, 4.916461
0.5845026, -1.853673, 4.924133
0.5844472, -1.850822, 4.925435
0.5843918, -1.847971, 4.926737
0.5860884, -1.846344, 4.930177
0.5860329, -1.843485, 4.931482
0.5935678, -1.845855, 4.942088
0.5993499, -1.846955, 4.950576
0.6010445, -1.845223, 4.954064
0.6009876, -1.842291, 4.955402
0.6044327, -1.841708, 4.961063
0.612546, -1.844198, 4.972513
0.6206579, -1.846611, 4.983998
0.6258507, -1.847032, 4.991898
0.6257915, -1.843982, 4.99329
-0.01717546, -1.425081, -1000
-0.01717546, -1.425081, -1000
-0.01717546, -1.425081, -1000
-0.01717546, -1.425081, -1000
-0.01717546, -1.425081, -1000
0.6627565, -1.848947, 5.048563
0.6626938, -1.84572, 5.050037
0.6626312, -1.842493, 5.05151
0.6672322, -1.842107, 5.058879
0.6741641, -1.843087, 5.06922
0.6741003, -1.839805, 5.070719
0.6740366, -1.836522, 5.072217
0.6832969, -1.838746, 5.085587
0.6931382, -1.841223, 5.09974
0.6959859, -1.839542, 5.105003
0.6959202, -1.836154, 5.10655
0.7005147, -1.835431, 5.114072
0.7080207, -1.836315, 5.125357
0.7161079, -1.837455, 5.137423
0.7160402, -1.83397, 5.139014
0.7159725, -1.830486, 5.140605
0.7159048, -1.827001, 5.142196
0.7158372, -1.823516, 5.143786
0.721009, -1.822855, 5.15218
0.7209408, -1.819346, 5.153782
0.7208726, -1.815836, 5.155385
0.7178945, -1.8108, 5.153189
0.7178266, -1.807304, 5.154785
0.7177587, -1.803808, 5.156381
0.7124542, -1.797639, 5.151106
0.7123868, -1.794168, 5.15269
0.7123194, -1.790697, 5.154275
0.7145787, -1.788382, 5.158928
0.7145111, -1.7849, 5.160518
-0.01717546, -1.425081, -1000
-0.01717546, -1.425081, -1000
-0.01717546, -1.425081, -1000
0.7113335, -1.769598, 5.163009
0.7112662, -1.76613, 5.164592
0.7111988, -1.762662, 5.166176
-0.01717546, -1.425081, -1000
-0.01717546, -1.425081, -1000
-0.01717546, -1.425081, -1000
-0.01717546, -1.425081, -1000
-0.01717546, -1.425081, -1000
-0.01717546, -1.425081, -1000
-0.01717546, -1.425081, -1000
-0.01717546, -1.425081, -1000
-0.01717546, -1.425081, -1000
-0.01717546, -1.425081, -1000
-0.01717546, -1.425081, -1000
-0.01717546, -1.425081, -1000
0.8415399, -1.770335, 5.36586
0.8414605, -1.766242, 5.367729
0.841381, -1.762148, 5.369598
0.8413014, -1.758055, 5.371467
0.8412219, -1.753961, 5.373336
0.8446245, -1.751186, 5.379998
0.8445446, -1.747076, 5.381874
0.8444648, -1.742965, 5.383751
-0.01717546, -1.425081, -1000
0.8477859, -1.735996, 5.392327
0.8477057, -1.73187, 5.394211
0.8476256, -1.727743, 5.396095
-0.01717546, -1.425081, -1000
-0.01717546, -1.425081, -1000
0.903051, -1.734053, 5.479524
0.9029657, -1.729661, 5.481529
0.9028803, -1.725268, 5.483535
-0.01717546, -1.425081, -1000
-0.01717546, -1.425081, -1000
-0.01717546, -1.425081, -1000
-0.01717546, -1.425081, -1000
0.9476529, -1.716981, 5.557445
0.9475634, -1.712373, 5.559549
0.9474739, -1.707764, 5.561653
0.9468051, -1.702989, 5.562934
0.9467157, -1.698384, 5.565037
0.9466262, -1.693778, 5.56714
0.95117, -1.690442, 5.575855
0.9510801, -1.685814, 5.577968
0.9509902, -1.681187, 5.580081
0.9601642, -1.678966, 5.595479
0.9600735, -1.674294, 5.597612
0.9698238, -1.672085, 5.613905
0.9749416, -1.668645, 5.623568
0.9789008, -1.664876, 5.631581
0.9788083, -1.660113, 5.633756
0.9839239, -1.656554, 5.643473
0.9838309, -1.651765, 5.645658
0.9837379, -1.646977, 5.647845
0.983645, -1.642189, 5.650031
0.9835519, -1.637401, 5.652217
0.9834589, -1.632613, 5.654403
0.9937762, -1.629934, 5.671809
0.9936823, -1.625096, 5.674018
0.9935882, -1.620258, 5.676227
1.019513, -1.62032, 5.716656
1.065089, -1.623741, 5.78612
0.4507286, -1.85822, 4.708545
0.4530428, -1.858193, 4.712146
0.4547675, -1.857605, 4.715107
0.4547245, -1.855388, 4.716119
0.4705867, -1.867601, 4.734773
0.4705422, -1.865309, 4.735819
0.4740315, -1.866191, 4.740801
0.4739867, -1.863882, 4.741855
0.4739419, -1.861574, 4.742908
0.473897, -1.859266, 4.743962
0.4750297, -1.857993, 4.746338
0.4749848, -1.855679, 4.747395
0.4772945, -1.855415, 4.751105
0.4825467, -1.857676, 4.758149
0.4825011, -1.855326, 4.759222
0.4824554, -1.852976, 4.760294
0.505359, -1.870174, 4.78744
0.5053113, -1.867717, 4.788563
0.5052635, -1.865259, 4.789685
0.5105103, -1.867237, 4.796858
0.5145796, -1.868186, 4.802706
0.514531, -1.865684, 4.803849
0.5144824, -1.863182, 4.804991
0.516198, -1.862125, 4.808166
0.5161493, -1.859615, 4.809312
0.5202162, -1.860439, 4.815217
0.5231066, -1.860277, 4.819778
0.5259964, -1.860087, 4.824351
0.5259467, -1.85753, 4.825519
0.5300112, -1.858229, 4.831481
0.5299612, -1.855653, 4.832658
-0.01717546, -1.425081, -1000
0.5433754, -1.861009, 4.850852
0.5433242, -1.858368, 4.852057
0.5432729, -1.855728, 4.853263
0.5461587, -1.855331, 4.857931
0.5461071, -1.852677, 4.859143
0.5519287, -1.854453, 4.867306
0.5571619, -1.855734, 4.874797
0.5600454, -1.855215, 4.879521
0.5599925, -1.852495, 4.880763
0.5652235, -1.853662, 4.888307
0.5669313, -1.852205, 4.891665
0.5698128, -1.851583, 4.896435
0.569759, -1.848816, 4.897698
0.5749872, -1.849836, 4.905309
0.5819749, -1.852062, 4.915061
0.5872009, -1.852975, 4.922721
0.5871456, -1.850124, 4.924022
0.5870902, -1.847274, 4.925324
0.5887946, -1.845644, 4.92876
0.5887391, -1.842785, 4.930065
0.5963082, -1.845147, 4.940653
0.6021164, -1.84624, 4.949128
0.6038189, -1.844506, 4.952612
0.603762, -1.841574, 4.95395
0.6072228, -1.840987, 4.959603
0.6153728, -1.843467, 4.971033
0.6235213, -1.845871, 4.9825
0.6287377, -1.846286, 4.990386
0.6286785, -1.843236, 4.991779
-0.01717546, -1.425081, -1000
-0.01717546, -1.425081, -1000
-0.01717546, -1.425081, -1000
-0.01717546, -1.425081, -1000
-0.01717546, -1.425081, -1000
0.6658112, -1.848157, 5.046964
0.6657485, -1.84493, 5.048438
0.6656858, -1.841703, 5.049911
0.6703078, -1.841312, 5.057269
0.6772711, -1.842284, 5.067593
0.6772074, -1.839002, 5.069092
0.6771436, -1.835719, 5.07059
0.6864459, -1.837932, 5.083939
0.6939905, -1.839034, 5.095101
0.6939251, -1.835672, 5.096636
0.6938599, -1.832309, 5.098172
0.7037423, -1.834597, 5.112382
0.7194739, -1.840087, 5.134105
0.7194062, -1.836602, 5.135696
0.7193385, -1.833118, 5.137287
0.7192708, -1.829633, 5.138878
0.7192032, -1.826149, 5.140469
0.7191355, -1.822664, 5.14206
0.7243309, -1.821997, 5.150441
0.7242627, -1.818487, 5.152043
0.7241945, -1.814978, 5.153646
0.7212033, -1.809945, 5.151456
0.7211354, -1.806449, 5.153052
0.7210675, -1.802953, 5.154648
0.7157394, -1.79679, 5.149386
0.715672, -1.793319, 5.15097
0.7150202, -1.789558, 5.151791
0.7149529, -1.78609, 5.153374
0.7148855, -1.782622, 5.154957
0.7148182, -1.779154, 5.15654
0.7147508, -1.775686, 5.158124
0.7146835, -1.772218, 5.159707
0.7146161, -1.76875, 5.161291
0.7145488, -1.765282, 5.162874
0.7144814, -1.761814, 5.164457
-0.01717546, -1.425081, -1000
-0.01717546, -1.425081, -1000
-0.01717546, -1.425081, -1000
-0.01717546, -1.425081, -1000
-0.01717546, -1.425081, -1000
-0.01717546, -1.425081, -1000
-0.01717546, -1.425081, -1000
-0.01717546, -1.425081, -1000
-0.01717546, -1.425081, -1000
-0.01717546, -1.425081, -1000
-0.01717546, -1.425081, -1000
-0.01717546, -1.425081, -1000
-0.01717546, -1.425081, -1000
-0.01717546, -1.425081, -1000
-0.01717546, -1.425081, -1000
-0.01717546, -1.425081, -1000
-0.01717546, -1.425081, -1000
-0.01717546, -1.425081, -1000
-0.01717546, -1.425081, -1000
-0.01717546, -1.425081, -1000
-0.01717546, -1.425081, -1000
0.851692, -1.734987, 5.390282
0.8516118, -1.73086, 5.392166
0.8515317, -1.726733, 5.39405
-0.01717546, -1.425081, -1000
-0.01717546, -1.425081, -1000
0.9072086, -1.732979, 5.477347
0.9071233, -1.728586, 5.479352
0.9070379, -1.724194, 5.481358
-0.01717546, -1.425081, -1000
-0.01717546, -1.425081, -1000
-0.01717546, -1.425081, -1000
-0.01717546, -1.425081, -1000
-0.01717546, -1.425081, -1000
-0.01717546, -1.425081, -1000
-0.01717546, -1.425081, -1000
-0.01717546, -1.425081, -1000
-0.01717546, -1.425081, -1000
0.9509856, -1.692651, 5.564857
0.9508961, -1.688046, 5.56696
0.9508066, -1.68344, 5.569063
0.9553705, -1.680055, 5.577787
0.9645864, -1.677823, 5.593164
0.9644957, -1.673151, 5.595297
0.9742905, -1.67093, 5.611567
0.9794319, -1.667484, 5.621217
0.9834095, -1.663711, 5.629221
0.983317, -1.658947, 5.631396
0.9884561, -1.655382, 5.6411
0.9883631, -1.650594, 5.643286
0.9882702, -1.645806, 5.645472
0.9881772, -1.641018, 5.647658
0.9880842, -1.63623, 5.649844
0.9879911, -1.631441, 5.65203
0.9931267, -1.627702, 5.661814
0.9982616, -1.623912, 5.67162
0.9981676, -1.619074, 5.673829
1.02421, -1.619106, 5.714197
1.069993, -1.622474, 5.783553
0.4528087, -1.857682, 4.707456
0.4551334, -1.857653, 4.711052
0.456866, -1.857062, 4.714008
0.4568229, -1.854845, 4.715021
0.4692057, -1.863837, 4.729725
0.4691615, -1.861562, 4.730763
0.4750333, -1.86457, 4.738348
0.4761716, -1.863318, 4.740711
0.4761268, -1.861009, 4.741765
0.4772648, -1.859741, 4.744135
0.4760371, -1.856393, 4.743872
0.4759923, -1.854085, 4.744926
0.4759474, -1.851776, 4.74598
0.4847709, -1.857101, 4.756985
0.4847253, -1.854751, 4.758057
0.4846796, -1.852401, 4.75913
0.5076854, -1.869573, 4.786222
0.5076376, -1.867115, 4.787344
0.5075899, -1.864658, 4.788467
0.5128602, -1.86663, 4.795628
0.5145845, -1.865616, 4.798778
0.5145361, -1.863125, 4.799915
0.5186229, -1.864022, 4.805776
0.5185742, -1.861511, 4.806921
0.5185254, -1.859001, 4.808068
0.5226107, -1.85982, 4.813963
0.5255142, -1.859655, 4.818518
0.5284171, -1.859462, 4.823084
0.5283675, -1.856904, 4.824252
0.5324503, -1.857599, 4.830204
0.5324003, -1.855022, 4.831381
-0.01717546, -1.425081, -1000
0.5476453, -1.861732, 4.851606
0.5475939, -1.859083, 4.852815
0.5475425, -1.856434, 4.854024
0.5498511, -1.855577, 4.857998
0.5497995, -1.852918, 4.859213
0.556237, -1.855124, 4.868058
0.5644431, -1.85859, 4.879016
0.567929, -1.858482, 4.884439
0.5678757, -1.855736, 4.885693
0.5678223, -1.852991, 4.886946
0.571307, -1.852817, 4.8924
0.5742014, -1.852184, 4.897167
0.5741475, -1.849408, 4.898435
0.579399, -1.850414, 4.906036
0.5899547, -1.855129, 4.920007
0.5898993, -1.852278, 4.921308
0.5898439, -1.849427, 4.92261
0.5956814, -1.850669, 4.931
0.6009286, -1.851448, 4.938705
0.6049964, -1.851371, 4.945011
0.6049397, -1.848448, 4.946345
0.6048829, -1.845525, 4.94768
0.6065932, -1.843789, 4.951159
0.6065363, -1.840858, 4.952497
0.6141352, -1.842994, 4.963166
0.6152552, -1.840802, 4.965959
-0.01717546, -1.425081, -1000
-0.01717546, -1.425081, -1000
-0.01717546, -1.425081, -1000
-0.01717546, -1.425081, -1000
-0.01717546, -1.425081, -1000
-0.01717546, -1.425081, -1000
-0.01717546, -1.425081, -1000
-0.01717546, -1.425081, -1000
0.6665123, -1.845919, 5.042444
0.6664498, -1.842703, 5.043912
0.6663874, -1.839487, 5.04538
0.6710306, -1.839102, 5.052722
0.6780256, -1.840077, 5.063025
0.6803145, -1.838199, 5.067465
0.6802507, -1.834916, 5.068964
0.6925349, -1.838832, 5.085986
0.6889423, -1.833451, 5.083068
0.6888778, -1.830127, 5.084586
0.6888132, -1.826803, 5.086103
0.7016798, -1.830777, 5.103994
-0.01717546, -1.425081, -1000
-0.01717546, -1.425081, -1000
-0.01717546, -1.425081, -1000
-0.01717546, -1.425081, -1000
-0.01717546, -1.425081, -1000
-0.01717546, -1.425081, -1000
-0.01717546, -1.425081, -1000
-0.01717546, -1.425081, -1000
-0.01717546, -1.425081, -1000
0.724512, -1.80909, 5.149724
0.7244442, -1.805594, 5.15132
0.7243763, -1.802098, 5.152916
0.72196, -1.79742, 5.151469
0.7218923, -1.793935, 5.15306
0.7183028, -1.788709, 5.150072
0.7182355, -1.785241, 5.151655
0.7181681, -1.781773, 5.153239
0.7181008, -1.778305, 5.154822
0.7074717, -1.769813, 5.142577
0.7074053, -1.766395, 5.144137
0.707339, -1.762977, 5.145698
-0.01717546, -1.425081, -1000
0.7072062, -1.75614, 5.148819
0.7071398, -1.752722, 5.15038
0.7070734, -1.749304, 5.15194
0.707007, -1.745886, 5.153501
0.7069407, -1.742468, 5.155061
0.7068743, -1.739049, 5.156622
-0.01717546, -1.425081, -1000
-0.01717546, -1.425081, -1000
-0.01717546, -1.425081, -1000
-0.01717546, -1.425081, -1000
-0.01717546, -1.425081, -1000
-0.01717546, -1.425081, -1000
-0.01717546, -1.425081, -1000
-0.01717546, -1.425081, -1000
-0.01717546, -1.425081, -1000
-0.01717546, -1.425081, -1000
-0.01717546, -1.425081, -1000
-0.01717546, -1.425081, -1000
-0.01717546, -1.425081, -1000
-0.01717546, -1.425081, -1000
-0.01717546, -1.425081, -1000
-0.01717546, -1.425081, -1000
-0.01717546, -1.425081, -1000
-0.01717546, -1.425081, -1000
-0.01717546, -1.425081, -1000
-0.01717546, -1.425081, -1000
-0.01717546, -1.425081, -1000
-0.01717546, -1.425081, -1000
-0.01717546, -1.425081, -1000
-0.01717546, -1.425081, -1000
-0.01717546, -1.425081, -1000
-0.01717546, -1.425081, -1000
-0.01717546, -1.425081, -1000
-0.01717546, -1.425081, -1000
-0.01717546, -1.425081, -1000
-0.01717546, -1.425081, -1000
-0.01717546, -1.425081, -1000
-0.01717546, -1.425081, -1000
-0.01717546, -1.425081, -1000
0.9553449, -1.691525, 5.562575
0.9552554, -1.686919, 5.564678
0.9551659, -1.682314, 5.566781
0.9597508, -1.678923, 5.575494
0.9690086, -1.67668, 5.590849
0.9689178, -1.672008, 5.592982
0.9787573, -1.669776, 5.609228
0.9839222, -1.666324, 5.618866
0.9879181, -1.662545, 5.626861
0.9878256, -1.657782, 5.629035
0.9929883, -1.654211, 5.638727
0.9928954, -1.649423, 5.640913
0.9928024, -1.644635, 5.643099
0.9927094, -1.639846, 5.645286
0.9926164, -1.635058, 5.647471
0.9925233, -1.63027, 5.649657
0.9976826, -1.626524, 5.659429
1.002841, -1.622729, 5.669223
1.002747, -1.617891, 5.671432
1.028907, -1.617892, 5.711738
1.074897, -1.621206, 5.780985
0.4548888, -1.857145, 4.706367
0.4578185, -1.857654, 4.710604
0.4601533, -1.857597, 4.714206
0.4601101, -1.855375, 4.715221
0.4713591, -1.863281, 4.728598
0.4713149, -1.861006, 4.729636
0.4760245, -1.862951, 4.7359
0.4783565, -1.862753, 4.739567
0.4783117, -1.860445, 4.740621
0.479455, -1.859175, 4.742989
0.478222, -1.855828, 4.742728
0.4781772, -1.85352, 4.743782
0.4781323, -1.851212, 4.744836
0.4994658, -1.867198, 4.769722
0.499419, -1.86479, 4.770822
0.5070908, -1.868916, 4.78056
0.5111991, -1.869972, 4.786336
0.5153066, -1.870988, 4.79213
0.5152584, -1.868505, 4.793264
0.5152102, -1.866023, 4.794397
0.5151619, -1.86354, 4.795531
0.5151137, -1.861057, 4.796664
0.519219, -1.861958, 4.802511
0.5251034, -1.864261, 4.8104
0.5262408, -1.862686, 4.812907
0.5261916, -1.860151, 4.814064
0.529108, -1.859977, 4.818614
0.5308378, -1.858836, 4.821817
0.5307881, -1.856279, 4.822985
0.5366682, -1.85836, 4.830974
0.5366181, -1.855775, 4.832154
0.5424966, -1.857774, 4.840182
0.5424458, -1.855161, 4.841375
0.5542504, -1.861605, 4.856314
0.5541985, -1.858937, 4.857532
0.5541467, -1.856269, 4.85875
0.5540949, -1.853601, 4.859968
0.5605611, -1.855792, 4.868802
0.5670262, -1.857922, 4.877664
0.5705278, -1.85781, 4.883079
0.5740288, -1.857665, 4.888509
0.5739752, -1.854903, 4.88977
0.5751061, -1.852997, 4.892428
0.5803823, -1.854055, 4.899991
-0.01717546, -1.425081, -1000
0.5968533, -1.860219, 4.922209
0.5967975, -1.857349, 4.92352
0.5967417, -1.854479, 4.92483
0.6002378, -1.854077, 4.930378
0.6001817, -1.85119, 4.931696
0.6054524, -1.851955, 4.939393
0.6077629, -1.850656, 4.943563
0.6077062, -1.847733, 4.944897
0.6076494, -1.84481, 4.946231
0.6075926, -1.841887, 4.947566
0.6075359, -1.838965, 4.9489
0.6074791, -1.836042, 4.950234
0.6180689, -1.840074, 4.964486
0.6286567, -1.844007, 4.978782
-0.01717546, -1.425081, -1000
-0.01717546, -1.425081, -1000
-0.01717546, -1.425081, -1000
-0.01717546, -1.425081, -1000
-0.01717546, -1.425081, -1000
-0.01717546, -1.425081, -1000
-0.01717546, -1.425081, -1000
0.6695565, -1.845133, 5.04085
0.669494, -1.841916, 5.042318
0.6694316, -1.8387, 5.043787
0.6740957, -1.83831, 5.051117
0.6811222, -1.839277, 5.061404
0.6834215, -1.837396, 5.065839
0.6833578, -1.834113, 5.067338
0.6956969, -1.838015, 5.084331
0.6920887, -1.832638, 5.081421
0.6920241, -1.829314, 5.082939
0.6919596, -1.82599, 5.084456
0.7048838, -1.829949, 5.102317
-0.01717546, -1.425081, -1000
-0.01717546, -1.425081, -1000
-0.01717546, -1.425081, -1000
-0.01717546, -1.425081, -1000
-0.01717546, -1.425081, -1000
-0.01717546, -1.425081, -1000
-0.01717546, -1.425081, -1000
-0.01717546, -1.425081, -1000
-0.01717546, -1.425081, -1000
0.7278208, -1.808234, 5.147992
0.7277529, -1.804739, 5.149588
0.727685, -1.801243, 5.151184
0.7252583, -1.796567, 5.149743
0.7251906, -1.793083, 5.151333
0.7215855, -1.787861, 5.148354
0.721518, -1.784393, 5.149937
0.7214507, -1.780925, 5.15152
0.7213833, -1.777457, 5.153103
0.7107072, -1.768977, 5.140883
0.7106408, -1.765558, 5.142444
0.7105744, -1.76214, 5.144004
-0.01717546, -1.425081, -1000
0.7104416, -1.755304, 5.147125
0.7103752, -1.751886, 5.148686
0.7103088, -1.748468, 5.150246
0.7102425, -1.74505, 5.151807
0.7101761, -1.741632, 5.153368
0.7101097, -1.738213, 5.154928
-0.01717546, -1.425081, -1000
-0.01717546, -1.425081, -1000
-0.01717546, -1.425081, -1000
-0.01717546, -1.425081, -1000
-0.01717546, -1.425081, -1000
-0.01717546, -1.425081, -1000
-0.01717546, -1.425081, -1000
-0.01717546, -1.425081, -1000
-0.01717546, -1.425081, -1000
-0.01717546, -1.425081, -1000
-0.01717546, -1.425081, -1000
-0.01717546, -1.425081, -1000
-0.01717546, -1.425081, -1000
-0.01717546, -1.425081, -1000
-0.01717546, -1.425081, -1000
-0.01717546, -1.425081, -1000
-0.01717546, -1.425081, -1000
-0.01717546, -1.425081, -1000
-0.01717546, -1.425081, -1000
-0.01717546, -1.425081, -1000
-0.01717546, -1.425081, -1000
-0.01717546, -1.425081, -1000
-0.01717546, -1.425081, -1000
-0.01717546, -1.425081, -1000
-0.01717546, -1.425081, -1000
-0.01717546, -1.425081, -1000
-0.01717546, -1.425081, -1000
-0.01717546, -1.425081, -1000
0.95604, -1.712213, 5.544075
0.955951, -1.707627, 5.546169
0.9552747, -1.702873, 5.547445
0.9551857, -1.698289, 5.549538
0.9550967, -1.693706, 5.55163
0.9597042, -1.690398, 5.560293
0.9596147, -1.685793, 5.562396
0.9595253, -1.681187, 5.564498
0.9641311, -1.677791, 5.573201
0.9734308, -1.675537, 5.588534
0.97334, -1.670865, 5.590667
0.983224, -1.668621, 5.60689
0.9884125, -1.665163, 5.616515
0.9924268, -1.66138, 5.6245
0.9923342, -1.656617, 5.626675
0.9975206, -1.65304, 5.636354
1.002706, -1.649412, 5.646057
1.002612, -1.644599, 5.648254
1.002519, -1.639786, 5.650452
1.002425, -1.634973, 5.652649
1.002332, -1.63016, 5.654846
1.002238, -1.625347, 5.657044
1.01211, -1.622445, 5.673567
1.012015, -1.617584, 5.675786
1.038879, -1.61764, 5.716886
1.067496, -1.617753, 5.760641
0.4569689, -1.856607, 4.705277
0.4599117, -1.857113, 4.709508
0.462257, -1.857054, 4.713105
0.4622138, -1.854831, 4.714119
0.4735126, -1.862724, 4.72747
0.4734684, -1.860449, 4.728509
0.4781989, -1.862389, 4.734762
0.4805414, -1.862188, 4.738423
0.4804966, -1.85988, 4.739477
0.4816451, -1.858609, 4.741842
0.4804069, -1.855263, 4.741584
0.4803621, -1.852955, 4.742639
0.4803172, -1.850647, 4.743692
0.501745, -1.866609, 4.768529
0.5016983, -1.864201, 4.769629
0.5094041, -1.868318, 4.779349
0.5135307, -1.869369, 4.785116
0.5176566, -1.870381, 4.7909
0.5176083, -1.867898, 4.792033
0.5175601, -1.865415, 4.793167
0.5175119, -1.862933, 4.794301
0.5174637, -1.86045, 4.795434
0.5215873, -1.861346, 4.801271
0.5274979, -1.863642, 4.809146
0.5286405, -1.862066, 4.81165
0.5285913, -1.859531, 4.812808
0.5315208, -1.859353, 4.817351
0.5332585, -1.85821, 4.820549
0.5332088, -1.855653, 4.821717
0.5391151, -1.857728, 4.829693
0.5390649, -1.855143, 4.830873
0.5449696, -1.857135, 4.838888
0.5449189, -1.854522, 4.84008
0.5567758, -1.860952, 4.854991
0.556724, -1.858284, 4.85621
0.5566722, -1.855616, 4.857428
0.5566204, -1.852948, 4.858646
0.5631154, -1.855132, 4.867465
0.5696093, -1.857254, 4.876311
0.5731267, -1.857139, 4.881718
0.5766434, -1.85699, 4.88714
0.5765898, -1.854228, 4.888401
0.5777259, -1.85232, 4.891057
0.5830257, -1.853372, 4.898607
-0.01717546, -1.425081, -1000
0.59957, -1.859517, 4.920787
0.5995142, -1.856647, 4.922098
0.5994585, -1.853777, 4.923408
0.6029702, -1.853371, 4.928947
0.6029142, -1.850484, 4.930265
0.6082084, -1.851243, 4.93795
0.6105294, -1.849941, 4.942114
0.6104727, -1.847018, 4.943448
0.6104159, -1.844095, 4.944783
0.6103591, -1.841172, 4.946117
0.6103024, -1.83825, 4.947452
0.6102456, -1.835327, 4.948786
0.6208826, -1.839347, 4.963013
0.6315175, -1.843268, 4.977284
-0.01717546, -1.425081, -1000
-0.01717546, -1.425081, -1000
-0.01717546, -1.425081, -1000
0.6437531, -1.838988, 4.997978
0.6436933, -1.835907, 4.999384
0.6436334, -1.832827, 5.000791
0.6631646, -1.841745, 5.026166
0.6631029, -1.838573, 5.027615
0.670164, -1.839698, 5.037809
0.6701018, -1.836493, 5.039272
0.6747871, -1.836107, 5.046587
0.6794716, -1.835678, 5.053922
0.6865286, -1.836593, 5.064212
0.6864648, -1.83331, 5.065711
0.698859, -1.837198, 5.082675
0.695235, -1.831825, 5.079774
0.6951705, -1.828501, 5.081291
0.6951059, -1.825177, 5.082809
0.7051227, -1.827469, 5.096932
-0.01717546, -1.425081, -1000
-0.01717546, -1.425081, -1000
-0.01717546, -1.425081, -1000
-0.01717546, -1.425081, -1000
-0.01717546, -1.425081, -1000
-0.01717546, -1.425081, -1000
-0.01717546, -1.425081, -1000
-0.01717546, -1.425081, -1000
-0.01717546, -1.425081, -1000
