0.3115804, -1.735093, 5.190124
0.3114178, -1.732242, 5.191708
0.3112553, -1.729392, 5.193292
0.3110927, -1.726541, 5.194876
0.3122241, -1.72496, 5.200132
0.312061, -1.722099, 5.201722
0.3118978, -1.719238, 5.203312
0.3123807, -1.716996, 5.206747
0.3122172, -1.714129, 5.20834
0.3120538, -1.711263, 5.209933
0.3131806, -1.709602, 5.215233
0.3130165, -1.706725, 5.216832
0.3128524, -1.703848, 5.218431
0.3136547, -1.701852, 5.222824
0.3147781, -1.70013, 5.228158
0.314613, -1.697234, 5.229767
-0.0361577, -1.383106, -1000
-0.0361577, -1.383106, -1000
-0.0361577, -1.383106, -1000
-0.0361577, -1.383106, -1000
0.4450971, -1.795193, 5.622919
0.44487, -1.791211, 5.625132
0.4446429, -1.787229, 5.627346
0.4485836, -1.786717, 5.641856
0.4570066, -1.789836, 5.669671
0.4567735, -1.785747, 5.671943
0.4584612, -1.783212, 5.679917
0.4582271, -1.779108, 5.682199
0.4579931, -1.775004, 5.68448
0.4577591, -1.770899, 5.68676
0.457525, -1.766795, 5.689042
0.4572909, -1.76269, 5.691323
0.4570569, -1.758586, 5.693604
0.4568229, -1.754481, 5.695884
0.4565888, -1.750377, 5.698165
0.4585863, -1.747918, 5.707192
0.2164301, -1.863114, 4.743515
0.2163194, -1.861172, 4.744594
0.2168991, -1.860533, 4.747134
0.2171331, -1.859235, 4.748949
0.217022, -1.857285, 4.750032
0.2176003, -1.856621, 4.752586
0.2185227, -1.856588, 4.755883
0.2222, -1.861644, 4.765093
0.2220864, -1.859651, 4.766201
0.2219728, -1.857659, 4.767308
0.2259875, -1.863227, 4.777326
0.2303423, -1.869359, 4.788124
0.230225, -1.867301, 4.789268
0.234574, -1.873329, 4.800122
-0.0361577, -1.383106, -1000
-0.0361577, -1.383106, -1000
0.2417643, -1.88056, 4.820144
0.2416416, -1.878408, 4.82134
0.2415189, -1.876256, 4.822536
0.2413962, -1.874104, 4.823731
0.2412735, -1.871953, 4.824928
0.2418355, -1.871002, 4.827641
0.2447924, -1.874229, 4.835682
0.244668, -1.872048, 4.836894
0.2493303, -1.878168, 4.848792
0.2512543, -1.879491, 4.854612
0.2542013, -1.882545, 4.86275
0.26056, -1.8914, 4.878591
0.2604284, -1.889091, 4.879874
0.263367, -1.891999, 4.888092
0.263234, -1.889667, 4.889388
0.263101, -1.887334, 4.890685
0.2643308, -1.887288, 4.895081
0.2641972, -1.884945, 4.896383
0.2664463, -1.886566, 4.903131
0.2680128, -1.887023, 4.908341
0.2709381, -1.889697, 4.916689
0.2708013, -1.887298, 4.918023
0.2713441, -1.886011, 4.920923
0.271207, -1.883607, 4.922259
0.2710699, -1.881202, 4.923596
0.2709328, -1.878798, 4.924932
0.2741875, -1.881845, 4.934166
0.275744, -1.882126, 4.939473
0.2756046, -1.879682, 4.940832
0.2771589, -1.879923, 4.946161
0.2776959, -1.878535, 4.949118
0.2792476, -1.878731, 4.954472
0.2791064, -1.876255, 4.955848
0.2796414, -1.874832, 4.958825
0.2818657, -1.876018, 4.965815
0.2817231, -1.873518, 4.967205
0.2825936, -1.872573, 4.971007
0.2824506, -1.870066, 4.972401
0.2823076, -1.867558, 4.973794
0.2821646, -1.86505, 4.975188
0.2826957, -1.863558, 4.978203
0.2825524, -1.861045, 4.979599
0.2844296, -1.861547, 4.985877
0.2869782, -1.863018, 4.993802
0.2848141, -1.857484, 4.99032
0.2846695, -1.854949, 4.991729
0.284525, -1.852415, 4.993137
0.2880764, -1.855263, 5.003574
0.2879303, -1.852699, 5.005
0.2931551, -1.857879, 5.019604
0.297033, -1.861048, 5.030955
0.2995657, -1.86224, 5.039035
0.2994141, -1.85958, 5.040513
0.2992625, -1.856921, 5.041991
0.3061444, -1.864146, 5.060923
0.317707, -1.877812, 5.091573
0.3175468, -1.875004, 5.093133
0.320397, -1.876361, 5.102214
0.3235788, -1.878129, 5.112159
0.3234158, -1.875271, 5.113747
0.3265931, -1.87696, 5.123736
0.3264285, -1.874075, 5.125339
0.326264, -1.87119, 5.126943
0.3260995, -1.868305, 5.128546
0.3292692, -1.869861, 5.138608
0.3314361, -1.870039, 5.146158
0.331269, -1.867109, 5.147787
0.3324338, -1.865924, 5.152816
0.3355942, -1.867318, 5.162969
-0.0361577, -1.383106, -1000
-0.0361577, -1.383106, -1000
-0.0361577, -1.383106, -1000
-0.0361577, -1.383106, -1000
-0.0361577, -1.383106, -1000
-0.0361577, -1.383106, -1000
-0.0361577, -1.383106, -1000
-0.0361577, -1.383106, -1000
-0.0361577, -1.383106, -1000
-0.0361577, -1.383106, -1000
-0.0361577, -1.383106, -1000
-0.0361577, -1.383106, -1000
-0.0361577, -1.383106, -1000
-0.0361577, -1.383106, -1000
-0.0361577, -1.383106, -1000
-0.0361577, -1.383106, -1000
-0.0361577, -1.383106, -1000
-0.0361577, -1.383106, -1000
-0.0361577, -1.383106, -1000
-0.0361577, -1.383106, -1000
-0.0361577, -1.383106, -1000
-0.0361577, -1.383106, -1000
-0.0361577, -1.383106, -1000
-0.0361577, -1.383106, -1000
0.3231384, -1.783956, 5.181978
0.3226441, -1.78069, 5.1827
0.3214927, -1.776707, 5.181635
0.3200136, -1.77238, 5.179669
0.3198494, -1.7695, 5.18127
0.3196852, -1.76662, 5.18287
0.3182085, -1.762336, 5.18088
0.3180449, -1.759467, 5.182475
0.3168979, -1.75556, 5.181367
0.3167347, -1.752699, 5.182958
0.3165716, -1.749838, 5.184547
0.3164084, -1.746977, 5.186138
0.3162453, -1.744116, 5.187727
0.3147739, -1.739924, 5.185686
0.3146113, -1.737074, 5.18727
0.3144488, -1.734224, 5.188854
0.3142862, -1.731373, 5.190438
0.3141237, -1.728523, 5.192022
0.3139612, -1.725672, 5.193606
0.3151032, -1.724088, 5.198858
0.3149401, -1.721227, 5.200448
0.3147769, -1.718366, 5.202038
0.3152652, -1.716122, 5.20547
0.3151017, -1.713255, 5.207064
0.3149382, -1.710389, 5.208656
0.3160758, -1.708725, 5.213952
0.3159117, -1.705848, 5.21555
0.3157476, -1.702971, 5.217149
0.316558, -1.700972, 5.221539
0.317692, -1.699247, 5.226868
0.3175269, -1.696351, 5.228477
-0.0361577, -1.383106, -1000
-0.0361577, -1.383106, -1000
-0.0361577, -1.383106, -1000
-0.0361577, -1.383106, -1000
0.4491044, -1.793979, 5.621145
0.4488773, -1.789997, 5.623359
0.4486502, -1.786015, 5.625571
0.4526256, -1.785492, 5.640067
0.4611208, -1.788589, 5.66785
0.4608877, -1.784501, 5.670122
0.4625914, -1.781961, 5.678089
0.4623573, -1.777857, 5.680371
0.4621233, -1.773752, 5.682652
0.4618893, -1.769648, 5.684932
0.4616553, -1.765543, 5.687213
0.4614212, -1.761439, 5.689495
0.4611872, -1.757334, 5.691775
0.4609531, -1.75323, 5.694056
0.4607191, -1.749126, 5.696337
0.4627352, -1.746661, 5.705356
0.2183843, -1.862522, 4.742649
0.2182736, -1.86058, 4.743728
0.2188586, -1.859939, 4.746267
0.2190954, -1.85864, 4.74808
0.2189842, -1.85669, 4.749164
0.2195679, -1.856025, 4.751715
0.2204983, -1.85599, 4.755008
0.224205, -1.861036, 4.764205
0.2240914, -1.859044, 4.765313
0.2239778, -1.857051, 4.76642
0.2280245, -1.86261, 4.776424
0.2324141, -1.868731, 4.787207
0.2322968, -1.866673, 4.788351
0.2366805, -1.872691, 4.799191
-0.0361577, -1.383106, -1000
-0.0361577, -1.383106, -1000
0.2439297, -1.879904, 4.819186
0.243807, -1.877752, 4.820381
0.2436843, -1.8756, 4.821578
0.2435616, -1.873448, 4.822773
0.2434389, -1.871297, 4.823969
0.2440063, -1.870345, 4.82668
0.2469871, -1.873564, 4.834711
0.2468628, -1.871383, 4.835923
0.2515625, -1.877491, 4.847804
0.2535025, -1.87881, 4.853618
0.2564736, -1.881856, 4.861744
0.2628831, -1.890696, 4.877562
0.2627515, -1.888387, 4.878845
0.2646827, -1.889552, 4.884745
0.2645502, -1.887227, 4.886036
0.2654482, -1.886623, 4.889646
0.2666886, -1.886574, 4.894037
0.266555, -1.884231, 4.895339
0.2688228, -1.885846, 4.902079
0.2704027, -1.886299, 4.907283
0.2733521, -1.888966, 4.915621
0.2732153, -1.886567, 4.916954
0.2737634, -1.885278, 4.919853
0.2753379, -1.885635, 4.925109
0.2758843, -1.884316, 4.928025
0.2757462, -1.881894, 4.929371
0.2773173, -1.882192, 4.93466
0.2788868, -1.882464, 4.939965
0.2787472, -1.880015, 4.941326
0.2796317, -1.879174, 4.945066
0.2801741, -1.877784, 4.948021
0.2824213, -1.879038, 4.954962
0.2822798, -1.876557, 4.95634
0.2828199, -1.875127, 4.959317
0.2843813, -1.875256, 4.964701
0.2842387, -1.872756, 4.966091
0.2851171, -1.871809, 4.96989
0.2849742, -1.869301, 4.971284
0.2848312, -1.866793, 4.972677
0.2846882, -1.864285, 4.974072
0.2852246, -1.862792, 4.977083
0.2850813, -1.860279, 4.97848
0.2869746, -1.860776, 4.98475
0.2875089, -1.859245, 4.987783
0.2893991, -1.859689, 4.994083
0.2892537, -1.857139, 4.9955
0.2924965, -1.8595, 5.005099
0.2923495, -1.856923, 5.006531
0.2979574, -1.862605, 5.021922
0.2978078, -1.859983, 5.023379
0.3007022, -1.861686, 5.032252
0.3022417, -1.861429, 5.037851
0.3031037, -1.860195, 5.041809
0.3029517, -1.857528, 5.043292
0.3078637, -1.861909, 5.057224
0.3171581, -1.872284, 5.082008
0.3169995, -1.869503, 5.083554
0.3212239, -1.872726, 5.095947
0.3261183, -1.876799, 5.11005
0.3259555, -1.873943, 5.111637
0.3294963, -1.87608, 5.122451
0.3303414, -1.874549, 5.126575
0.3325312, -1.874796, 5.134076
0.3323652, -1.871885, 5.135694
0.3332075, -1.870303, 5.139845
0.33808, -1.873993, 5.154161
0.3379113, -1.871034, 5.155806
0.3377426, -1.868074, 5.157451
0.3436126, -1.872903, 5.174407
-0.0361577, -1.383106, -1000
-0.0361577, -1.383106, -1000
-0.0361577, -1.383106, -1000
-0.0361577, -1.383106, -1000
-0.0361577, -1.383106, -1000
-0.0361577, -1.383106, -1000
-0.0361577, -1.383106, -1000
-0.0361577, -1.383106, -1000
-0.0361577, -1.383106, -1000
-0.0361577, -1.383106, -1000
-0.0361577, -1.383106, -1000
-0.0361577, -1.383106, -1000
-0.0361577, -1.383106, -1000
-0.0361577, -1.383106, -1000
-0.0361577, -1.383106, -1000
-0.0361577, -1.383106, -1000
-0.0361577, -1.383106, -1000
-0.0361577, -1.383106, -1000
-0.0361577, -1.383106, -1000
-0.0361577, -1.383106, -1000
-0.0361577, -1.383106, -1000
-0.0361577, -1.383106, -1000
-0.0361577, -1.383106, -1000
-0.0361577, -1.383106, -1000
0.3280479, -1.785269, 5.186011
0.3255607, -1.779807, 5.181409
0.3253954, -1.776908, 5.18302
0.3239052, -1.772577, 5.181063
0.3237405, -1.769689, 5.182667
0.3235759, -1.766801, 5.184272
0.3224188, -1.762863, 5.183187
0.3222546, -1.759983, 5.184788
0.3207685, -1.755723, 5.182791
0.3206048, -1.752854, 5.184386
0.3204412, -1.749985, 5.18598
0.3192875, -1.746105, 5.184863
0.3191244, -1.743243, 5.186453
0.3176423, -1.739055, 5.184416
0.3174798, -1.736205, 5.186
0.3173172, -1.733355, 5.187585
0.3171547, -1.730504, 5.189168
0.3169922, -1.727653, 5.190753
0.3168296, -1.724803, 5.192337
0.3179824, -1.723215, 5.197584
0.3178192, -1.720354, 5.199173
0.317656, -1.717493, 5.200764
0.3181497, -1.715248, 5.204194
0.3179862, -1.712381, 5.205787
0.3178228, -1.709515, 5.207379
0.3189709, -1.707848, 5.212671
0.3188069, -1.704971, 5.214269
0.3186429, -1.702094, 5.215868
0.3194612, -1.700092, 5.220253
0.3192967, -1.697207, 5.221857
0.3191321, -1.694322, 5.22346
0.3202757, -1.692573, 5.228797
-0.0361577, -1.383106, -1000
0.4535658, -1.800729, 5.614945
0.4533387, -1.796747, 5.617158
0.4531116, -1.792765, 5.619372
0.454842, -1.790406, 5.627229
0.4546141, -1.786408, 5.629451
0.4589493, -1.786124, 5.644884
0.465235, -1.787342, 5.666028
0.4650019, -1.783254, 5.668301
0.4667217, -1.78071, 5.676261
0.4664876, -1.776605, 5.678543
0.4662536, -1.772501, 5.680823
0.4660195, -1.768396, 5.683104
0.4657855, -1.764292, 5.685385
0.4655515, -1.760187, 5.687666
0.4653174, -1.756083, 5.689947
0.4673544, -1.75365, 5.698937
0.4671193, -1.749527, 5.701228
0.4668842, -1.745404, 5.70352
0.2203385, -1.86193, 4.741784
0.2202277, -1.859988, 4.742864
0.2208181, -1.859346, 4.745399
0.2210576, -1.858045, 4.747211
0.2216469, -1.857384, 4.749758
0.2215355, -1.855429, 4.750844
0.2224738, -1.855391, 4.754134
0.2244609, -1.857246, 4.75964
0.224348, -1.855267, 4.760739
0.2259828, -1.856444, 4.765533
0.2293628, -1.860736, 4.774042
0.2334383, -1.866226, 4.784064
0.2357648, -1.868537, 4.790406
0.2387871, -1.872052, 4.798258
-0.0361577, -1.383106, -1000
0.2434289, -1.876478, 4.811051
0.2433074, -1.874347, 4.812235
0.2431859, -1.872217, 4.813419
0.2444571, -1.872515, 4.817611
0.244335, -1.870374, 4.8188
0.2442129, -1.868233, 4.819991
0.246177, -1.869687, 4.825719
0.249182, -1.872899, 4.833739
0.2490576, -1.870718, 4.834951
0.2537947, -1.876815, 4.846816
0.256445, -1.879305, 4.854147
0.2587459, -1.881168, 4.860739
0.2645127, -1.888826, 4.875003
0.2643813, -1.886522, 4.876283
0.26425, -1.884219, 4.877563
0.2668893, -1.886518, 4.885001
0.2684877, -1.887057, 4.890149
0.2697386, -1.887, 4.894539
0.2696047, -1.884651, 4.895844
0.2736196, -1.889079, 4.906456
0.2752118, -1.889509, 4.911665
0.276457, -1.889353, 4.91611
0.2773557, -1.888619, 4.919786
0.2772182, -1.886207, 4.921126
0.2784605, -1.886, 4.925599
0.281081, -1.887968, 4.933221
0.2809416, -1.885524, 4.93458
0.2814913, -1.884166, 4.937513
0.2813516, -1.881717, 4.938874
0.281212, -1.879268, 4.940235
0.2827926, -1.879496, 4.945555
0.2840279, -1.879164, 4.950098
0.2849181, -1.878282, 4.953856
0.2847766, -1.8758, 4.955235
0.2863525, -1.875943, 4.960603
0.2879268, -1.87606, 4.965986
0.2884701, -1.874591, 4.968981
0.2883267, -1.872078, 4.970377
0.2881835, -1.869565, 4.971774
0.2880402, -1.867052, 4.973171
0.2878969, -1.864538, 4.974567
0.2904928, -1.866076, 4.982429
0.2903483, -1.863541, 4.983838
0.2902038, -1.861007, 4.985246
0.2900592, -1.858472, 4.986654
0.2919655, -1.858912, 4.992947
0.2918201, -1.856361, 4.994364
0.296114, -1.860185, 5.006402
0.2986974, -1.861502, 5.014386
0.2995723, -1.860351, 5.018294
0.2994233, -1.857737, 5.019747
0.3013195, -1.858001, 5.026137
0.3049177, -1.860618, 5.036666
0.3068095, -1.860805, 5.043099
0.306657, -1.85813, 5.044586
0.3105878, -1.861084, 5.056018
0.3189366, -1.870037, 5.078279
0.3187785, -1.867263, 5.07982
0.3226982, -1.870023, 5.09136
0.3225383, -1.867217, 5.092919
0.3278107, -1.871705, 5.107856
0.331042, -1.873388, 5.117815
0.3332527, -1.873667, 5.125287
0.3354612, -1.873908, 5.132778
0.3352951, -1.870997, 5.134397
0.3398718, -1.87428, 5.147824
0.3457987, -1.879249, 5.164673
0.3469817, -1.878001, 5.169724
0.3468102, -1.874993, 5.171396
0.3466387, -1.871986, 5.173067
-0.0361577, -1.383106, -1000
-0.0361577, -1.383106, -1000
-0.0361577, -1.383106, -1000
-0.0361577, -1.383106, -1000
-0.0361577, -1.383106, -1000
-0.0361577, -1.383106, -1000
-0.0361577, -1.383106, -1000
-0.0361577, -1.383106, -1000
-0.0361577, -1.383106, -1000
-0.0361577, -1.383106, -1000
-0.0361577, -1.383106, -1000
-0.0361577, -1.383106, -1000
-0.0361577, -1.383106, -1000
-0.0361577, -1.383106, -1000
-0.0361577, -1.383106, -1000
-0.0361577, -1.383106, -1000
-0.0361577, -1.383106, -1000
-0.0361577, -1.383106, -1000
-0.0361577, -1.383106, -1000
-0.0361577, -1.383106, -1000
-0.0361577, -1.383106, -1000
-0.0361577, -1.383106, -1000
-0.0361577, -1.383106, -1000
-0.0361577, -1.383106, -1000
0.3359987, -1.789861, 5.198008
0.3318195, -1.782551, 5.188996
0.3316526, -1.779626, 5.190622
0.3291485, -1.774199, 5.186012
0.3289828, -1.771292, 5.187627
0.3278162, -1.76733, 5.186561
0.3276509, -1.764431, 5.188172
0.3274857, -1.761533, 5.189782
0.3259877, -1.757258, 5.1878
0.324824, -1.753345, 5.186706
0.3246599, -1.750466, 5.188307
0.3231648, -1.746241, 5.186297
0.3230012, -1.743372, 5.187891
0.3228376, -1.740503, 5.189486
0.3216773, -1.736649, 5.188359
0.3215141, -1.733788, 5.189949
0.3213509, -1.730927, 5.191539
0.3211878, -1.728065, 5.193129
0.3210247, -1.725204, 5.194719
0.321856, -1.723288, 5.199052
0.3213611, -1.720107, 5.199731
0.3211976, -1.71724, 5.201324
0.3210342, -1.714374, 5.202917
0.3221942, -1.712725, 5.208191
0.3220302, -1.709848, 5.20979
0.3218662, -1.70697, 5.211389
0.3226934, -1.704983, 5.215762
0.3225289, -1.702098, 5.217365
0.3223644, -1.699213, 5.218969
0.3221999, -1.696327, 5.220572
0.3220354, -1.693442, 5.222175
0.3231896, -1.69169, 5.227508
-0.0361577, -1.383106, -1000
0.4575731, -1.799515, 5.613172
0.457346, -1.795533, 5.615385
0.4571189, -1.791551, 5.617598
0.4588654, -1.789187, 5.625448
0.4586374, -1.785189, 5.62767
0.467282, -1.788332, 5.655338
0.4716485, -1.787929, 5.670815
0.4714144, -1.783822, 5.673098
0.470852, -1.779458, 5.674433
0.4706179, -1.775353, 5.676714
0.4703838, -1.771249, 5.678995
0.4701498, -1.767145, 5.681276
0.4699158, -1.76304, 5.683557
0.4696817, -1.758936, 5.685838
0.4694477, -1.754832, 5.688119
0.4715034, -1.752393, 5.697101
0.4712683, -1.74827, 5.699392
0.4710332, -1.744147, 5.701684
0.2237069, -1.863955, 4.743816
0.223949, -1.862654, 4.745627
0.2238375, -1.860699, 4.746714
0.2240791, -1.85939, 4.748529
0.2239674, -1.857432, 4.749617
0.2238558, -1.855474, 4.750705
0.2255074, -1.856707, 4.755459
0.2264525, -1.856643, 4.758758
0.2263396, -1.854664, 4.759858
0.2315097, -1.862139, 4.772021
0.2313945, -1.86012, 4.773143
0.2355021, -1.865601, 4.783151
0.2378473, -1.867907, 4.789485
0.2408936, -1.871414, 4.797326
-0.0361577, -1.383106, -1000
0.2455729, -1.875829, 4.810102
0.2454514, -1.873698, 4.811285
0.2453299, -1.871567, 4.812469
0.2459101, -1.87065, 4.815156
0.2457883, -1.868514, 4.816342
0.2463675, -1.86758, 4.819037
0.2490485, -1.870226, 4.826269
0.2541785, -1.877, 4.838821
0.2589539, -1.883102, 4.850661
0.2595261, -1.882043, 4.853424
0.2593981, -1.879798, 4.854672
0.2617174, -1.881649, 4.861258
0.2668304, -1.888123, 4.873977
0.266699, -1.88582, 4.875257
0.2665677, -1.883517, 4.876537
0.2692285, -1.88581, 4.883966
0.2708402, -1.886344, 4.889108
0.2721018, -1.886283, 4.893493
0.2719678, -1.883935, 4.894798
0.2760148, -1.888353, 4.905396
0.2776204, -1.888779, 4.910599
0.2788763, -1.88862, 4.915039
0.2797831, -1.887884, 4.918711
0.2796455, -1.885471, 4.920052
0.2808986, -1.885262, 4.92452
0.2835404, -1.887223, 4.932133
0.283401, -1.884778, 4.933491
0.2839561, -1.88342, 4.936422
0.2838164, -1.88097, 4.937783
0.2836767, -1.878521, 4.939144
0.2852708, -1.878745, 4.944458
0.2865167, -1.87841, 4.948996
0.287415, -1.877525, 4.952751
0.2872735, -1.875044, 4.95413
0.2888627, -1.875183, 4.959492
0.2904503, -1.875295, 4.964869
0.2909991, -1.873825, 4.967862
0.2908557, -1.871312, 4.969258
0.2907124, -1.868799, 4.970655
0.2905691, -1.866285, 4.972051
0.2904258, -1.863772, 4.973448
0.2930431, -1.865303, 4.9813
0.2928986, -1.862768, 4.982709
0.2927541, -1.860234, 4.984117
0.2926096, -1.8577, 4.985526
0.2945319, -1.858134, 4.991811
0.2943864, -1.855584, 4.993228
0.2987152, -1.859397, 5.00525
0.3013199, -1.860707, 5.013225
0.3022029, -1.859554, 5.017129
0.3020538, -1.85694, 5.018582
0.3039661, -1.857199, 5.024965
0.3075936, -1.859807, 5.035482
0.3095015, -1.859989, 5.041907
0.309349, -1.857314, 5.043395
0.3133119, -1.860258, 5.054812
0.3217276, -1.869191, 5.077043
0.3215694, -1.866417, 5.078585
0.3255213, -1.869167, 5.09011
0.3253613, -1.866362, 5.09167
0.3306765, -1.870836, 5.106588
0.3339345, -1.872512, 5.116535
0.3361639, -1.872785, 5.123998
0.3383911, -1.873021, 5.131482
0.3382251, -1.870109, 5.1331
0.3428392, -1.873381, 5.146511
0.3488142, -1.878335, 5.163338
0.3500079, -1.877084, 5.168385
0.3498364, -1.874076, 5.170056
0.3496649, -1.871069, 5.171728
-0.0361577, -1.383106, -1000
-0.0361577, -1.383106, -1000
-0.0361577, -1.383106, -1000
-0.0361577, -1.383106, -1000
-0.0361577, -1.383106, -1000
-0.0361577, -1.383106, -1000
-0.0361577, -1.383106, -1000
-0.0361577, -1.383106, -1000
-0.0361577, -1.383106, -1000
-0.0361577, -1.383106, -1000
-0.0361577, -1.383106, -1000
-0.0361577, -1.383106, -1000
-0.0361577, -1.383106, -1000
-0.0361577, -1.383106, -1000
-0.0361577, -1.383106, -1000
-0.0361577, -1.383106, -1000
-0.0361577, -1.383106, -1000
-0.0361577, -1.383106, -1000
-0.0361577, -1.383106, -1000
-0.0361577, -1.383106, -1000
-0.0361577, -1.383106, -1000
-0.0361577, -1.383106, -1000
-0.0361577, -1.383106, -1000
-0.0361577, -1.383106, -1000
0.3389741, -1.78896, 5.19669
0.3347628, -1.781659, 5.187694
0.334596, -1.778734, 5.189319
0.3320731, -1.773313, 5.184717
0.3319073, -1.770406, 5.186332
0.3307328, -1.766446, 5.18527
0.3305675, -1.763547, 5.186881
0.3304022, -1.760649, 5.188491
0.3288936, -1.756377, 5.186514
0.327722, -1.752467, 5.185423
0.3275577, -1.749588, 5.187024
0.326052, -1.745366, 5.185019
0.3258884, -1.742497, 5.186613
0.3257248, -1.739628, 5.188208
0.3245564, -1.735776, 5.187085
0.3243933, -1.732915, 5.188674
0.3242301, -1.730054, 5.190265
0.324067, -1.727193, 5.191854
0.3239039, -1.724332, 5.193445
0.3247432, -1.722413, 5.197774
0.3242456, -1.719233, 5.198454
0.3240821, -1.716366, 5.200047
0.3239186, -1.7135, 5.20164
0.3250895, -1.711847, 5.20691
0.3249254, -1.70897, 5.208508
0.3247613, -1.706093, 5.210107
0.3255966, -1.704103, 5.214477
0.3254321, -1.701218, 5.21608
0.3252676, -1.698333, 5.217684
0.3251031, -1.695448, 5.219287
0.3249386, -1.692563, 5.220891
0.3261035, -1.690807, 5.226217
-0.0361577, -1.383106, -1000
0.4615803, -1.798301, 5.611398
0.4613533, -1.794318, 5.613611
0.4611262, -1.790336, 5.615825
0.4628887, -1.787968, 5.623668
0.4626608, -1.78397, 5.625889
0.4713776, -1.787092, 5.653525
0.4734634, -1.784849, 5.662387
0.4732303, -1.780761, 5.664659
0.4726664, -1.776416, 5.665985
0.4724334, -1.772331, 5.668256
0.4722004, -1.768245, 5.670527
0.4719674, -1.764159, 5.672797
0.4717344, -1.760073, 5.675068
0.4715014, -1.755987, 5.677339
0.4712685, -1.751901, 5.679609
0.4733438, -1.749475, 5.688571
0.4731098, -1.745371, 5.690853
0.4751821, -1.742889, 5.699847
0.2256718, -1.863359, 4.742947
0.2259165, -1.862058, 4.744756
0.225805, -1.860102, 4.745843
0.2260493, -1.858793, 4.747657
0.2259376, -1.856835, 4.748745
0.225826, -1.854877, 4.749833
0.2274909, -1.856106, 4.754581
0.2284441, -1.85604, 4.757876
0.2283312, -1.85406, 4.758976
0.2335414, -1.861523, 4.771122
0.2334263, -1.859505, 4.772243
0.2375659, -1.864976, 4.782238
0.2399298, -1.867275, 4.788563
0.2430002, -1.870776, 4.796393
-0.0361577, -1.383106, -1000
0.2477169, -1.875179, 4.809153
0.2475954, -1.873048, 4.810337
0.2474739, -1.870918, 4.811521
0.2480594, -1.869998, 4.814204
0.2479376, -1.867862, 4.815391
0.2485223, -1.866927, 4.818083
0.2512246, -1.869567, 4.825305
0.2542773, -1.872759, 4.833307
0.2555636, -1.872942, 4.837551
0.2554384, -1.870745, 4.838771
0.2588375, -1.874418, 4.847592
0.2639951, -1.880959, 4.86025
0.2684439, -1.886258, 4.871426
0.2690168, -1.885118, 4.874231
0.2688855, -1.882814, 4.875511
0.2701609, -1.882806, 4.879861
0.2731928, -1.885632, 4.888066
0.2737622, -1.884431, 4.890906
0.2736286, -1.882088, 4.892208
0.2741972, -1.880871, 4.895057
0.2775725, -1.884126, 4.904109
0.2805941, -1.886771, 4.912415
0.283613, -1.889369, 4.920748
0.2834748, -1.886946, 4.922094
0.2843876, -1.886172, 4.925782
0.2849494, -1.884836, 4.928698
0.2848104, -1.8824, 4.930051
0.2874705, -1.884298, 4.937686
0.2880298, -1.882919, 4.940625
0.288938, -1.882066, 4.944357
0.2887971, -1.879596, 4.945731
0.2890055, -1.877656, 4.947895
0.2899119, -1.876769, 4.951646
0.2897704, -1.874287, 4.953025
0.291373, -1.874422, 4.958381
0.292974, -1.874531, 4.963752
0.293528, -1.873059, 4.966743
0.2933847, -1.870546, 4.968139
0.2953306, -1.871108, 4.974343
0.2958825, -1.869599, 4.977355
0.295738, -1.867064, 4.978763
0.2955934, -1.86453, 4.980171
0.2964917, -1.863502, 4.984002
0.2963468, -1.860959, 4.985415
0.2989801, -1.86239, 4.993308
0.3005697, -1.862297, 4.998792
0.3025047, -1.862668, 5.005102
0.3023568, -1.860075, 5.006544
0.3049825, -1.861371, 5.014513
0.3048334, -1.858757, 5.015965
0.3046843, -1.856143, 5.017418
0.305574, -1.854963, 5.021333
0.3113078, -1.860423, 5.036763
0.3111557, -1.857755, 5.038246
0.3110037, -1.855088, 5.039728
0.316036, -1.859433, 5.053607
0.3245185, -1.868345, 5.075808
0.3243604, -1.865572, 5.077349
0.3248926, -1.863717, 5.080552
0.3247342, -1.860939, 5.082096
0.3300936, -1.865426, 5.096982
0.3368271, -1.871635, 5.115255
0.3390751, -1.871903, 5.12271
0.3413211, -1.872133, 5.130185
0.341155, -1.869221, 5.131803
0.347183, -1.874246, 5.148562
0.3518297, -1.877421, 5.162004
0.3544093, -1.877909, 5.170423
0.3542373, -1.874891, 5.1721
0.3540652, -1.871873, 5.173776
-0.0361577, -1.383106, -1000
-0.0361577, -1.383106, -1000
-0.0361577, -1.383106, -1000
-0.0361577, -1.383106, -1000
-0.0361577, -1.383106, -1000
-0.0361577, -1.383106, -1000
-0.0361577, -1.383106, -1000
-0.0361577, -1.383106, -1000
-0.0361577, -1.383106, -1000
-0.0361577, -1.383106, -1000
-0.0361577, -1.383106, -1000
-0.0361577, -1.383106, -1000
-0.0361577, -1.383106, -1000
-0.0361577, -1.383106, -1000
-0.0361577, -1.383106, -1000
-0.0361577, -1.383106, -1000
-0.0361577, -1.383106, -1000
-0.0361577, -1.383106, -1000
-0.0361577, -1.383106, -1000
-0.0361577, -1.383106, -1000
-0.0361577, -1.383106, -1000
-0.0361577, -1.383106, -1000
-0.0361577, -1.383106, -1000
-0.0361577, -1.383106, -1000
-0.0361577, -1.383106, -1000
0.3377061, -1.780767, 5.186391
0.3375393, -1.777842, 5.188016
0.3349977, -1.772426, 5.183423
0.334832, -1.76952, 5.185038
0.3336493, -1.765562, 5.183979
0.3334841, -1.762664, 5.185589
0.3333188, -1.759765, 5.187201
0.3317995, -1.755497, 5.185228
0.3306198, -1.751589, 5.184141
0.3304556, -1.748709, 5.185741
0.3289392, -1.744491, 5.183741
0.3287756, -1.741622, 5.185335
0.328612, -1.738753, 5.18693
0.3284484, -1.735884, 5.188524
0.3282847, -1.733015, 5.190119
0.3281212, -1.730146, 5.191713
0.3279576, -1.727277, 5.193307
0.327794, -1.724407, 5.194902
0.3276303, -1.721539, 5.196496
0.3284768, -1.719601, 5.200831
0.3283128, -1.716724, 5.20243
0.3281487, -1.713847, 5.204029
0.3279846, -1.71097, 5.205628
0.3278205, -1.708093, 5.207227
0.3286643, -1.706109, 5.211589
0.3284998, -1.703223, 5.213192
0.3283353, -1.700338, 5.214795
0.3281708, -1.697453, 5.216398
0.3280063, -1.694568, 5.218002
0.3278418, -1.691683, 5.219605
0.3276772, -1.688798, 5.221209
-0.0361577, -1.383106, -1000
-0.0361577, -1.383106, -1000
-0.0361577, -1.383106, -1000
0.4741627, -1.796435, 5.639314
0.4739316, -1.792381, 5.641567
0.4737005, -1.788327, 5.643819
0.4734693, -1.784273, 5.646072
0.4749072, -1.781521, 5.653033
0.4746752, -1.777453, 5.655293
0.4744433, -1.773386, 5.657554
0.4742114, -1.769319, 5.659814
0.4739795, -1.765252, 5.662074
0.4760789, -1.762913, 5.670978
0.4758459, -1.758827, 5.673248
0.4756129, -1.754741, 5.675519
0.47538, -1.750655, 5.677789
0.4774742, -1.748224, 5.686744
0.4772401, -1.74412, 5.689025
0.4793311, -1.741632, 5.69801
0.2279956, -1.863417, 4.742799
0.2278841, -1.861461, 4.743886
0.2277726, -1.859506, 4.744972
0.2280195, -1.858196, 4.746785
0.2279079, -1.856237, 4.747873
0.2277962, -1.85428, 4.748961
0.2284006, -1.853595, 4.751511
0.2329406, -1.859874, 4.762121
0.2367613, -1.864821, 4.771301
0.2398636, -1.868452, 4.779044
0.2404614, -1.867653, 4.781658
0.2403442, -1.865597, 4.7828
0.2430836, -1.868507, 4.78986
0.2461776, -1.871992, 4.797684
-0.0361577, -1.383106, -1000
0.2498609, -1.874529, 4.808204
0.2497394, -1.872399, 4.809388
0.2496178, -1.870268, 4.810572
0.2494964, -1.868137, 4.811756
0.2493749, -1.866007, 4.81294
0.2506769, -1.866274, 4.81713
0.2544678, -1.870698, 4.826601
0.2564774, -1.872092, 4.832334
0.2577745, -1.872272, 4.836572
0.2576492, -1.870075, 4.837793
0.261075, -1.87374, 4.846602
0.2669827, -1.881436, 4.860762
0.2696918, -1.883814, 4.868117
0.2713345, -1.884415, 4.873206
0.2712032, -1.882112, 4.874486
0.2710719, -1.879809, 4.875765
0.271649, -1.878646, 4.878581
0.2729335, -1.878608, 4.88294
0.2728013, -1.876289, 4.884229
0.2758529, -1.87903, 4.892467
0.2799625, -1.883402, 4.903051
0.2823012, -1.884926, 4.909797
0.2821647, -1.882532, 4.911127
0.2845003, -1.884001, 4.917903
0.2850687, -1.882686, 4.920803
0.2874008, -1.884093, 4.927612
0.2872618, -1.881657, 4.928967
0.2899433, -1.883549, 4.936592
0.2905079, -1.882168, 4.939528
0.291072, -1.880777, 4.94247
0.2909313, -1.878309, 4.943841
0.2914944, -1.876902, 4.946793
0.2924088, -1.876012, 4.950541
0.2922673, -1.873531, 4.95192
0.2938832, -1.873662, 4.95727
0.2954976, -1.873766, 4.962635
0.2960569, -1.872292, 4.965623
0.2959136, -1.869779, 4.96702
0.2978756, -1.870337, 4.973217
0.2984328, -1.868826, 4.976225
0.2982883, -1.866292, 4.977634
0.2981438, -1.863757, 4.979042
0.2990501, -1.862726, 4.982869
0.2989051, -1.860184, 4.984282
0.3015599, -1.861609, 4.992167
0.3031628, -1.861511, 4.997644
0.3040648, -1.860406, 5.001512
0.3039174, -1.857821, 5.002948
0.307613, -1.860574, 5.013349
0.3085116, -1.859407, 5.017251
0.3083621, -1.856785, 5.018707
0.3012344, -1.844618, 5.003778
0.3010879, -1.842049, 5.005206
0.3009414, -1.83948, 5.006633
0.3136877, -1.854275, 5.03854
-0.0361577, -1.383106, -1000
-0.0361577, -1.383106, -1000
0.3278473, -1.865649, 5.07777
0.3276888, -1.86287, 5.079315
0.3275304, -1.860091, 5.080859
0.3329326, -1.864566, 5.095725
0.3397196, -1.870759, 5.113975
0.344417, -1.874157, 5.12727
0.344251, -1.871245, 5.128888
0.3440849, -1.868334, 5.130506
0.3501611, -1.873343, 5.147244
0.3548452, -1.876508, 5.160669
0.3588321, -1.878728, 5.17245
0.3586594, -1.8757, 5.174133
0.3584867, -1.872671, 5.175816
-0.0361577, -1.383106, -1000
-0.0361577, -1.383106, -1000
-0.0361577, -1.383106, -1000
-0.0361577, -1.383106, -1000
-0.0361577, -1.383106, -1000
-0.0361577, -1.383106, -1000
-0.0361577, -1.383106, -1000
-0.0361577, -1.383106, -1000
-0.0361577, -1.383106, -1000
-0.0361577, -1.383106, -1000
-0.0361577, -1.383106, -1000
-0.0361577, -1.383106, -1000
-0.0361577, -1.383106, -1000
-0.0361577, -1.383106, -1000
-0.0361577, -1.383106, -1000
-0.0361577, -1.383106, -1000
-0.0361577, -1.383106, -1000
-0.0361577, -1.383106, -1000
-0.0361577, -1.383106, -1000
-0.0361577, -1.383106, -1000
-0.0361577, -1.383106, -1000
-0.0361577, -1.383106, -1000
-0.0361577, -1.383106, -1000
-0.0361577, -1.383106, -1000
-0.0361577, -1.383106, -1000
0.3420184, -1.781317, 5.188625
0.3418509, -1.778381, 5.190257
0.3389481, -1.772605, 5.18479
0.3387819, -1.769691, 5.18641
0.3386157, -1.766777, 5.188029
0.3364007, -1.76178, 5.184299
0.3362353, -1.758882, 5.18591
0.3360701, -1.755983, 5.187521
0.3345407, -1.751729, 5.185546
0.3343761, -1.748841, 5.187151
0.3331892, -1.744952, 5.186059
0.333025, -1.742072, 5.187659
0.3328608, -1.739192, 5.18926
0.3313355, -1.735009, 5.187246
0.3311719, -1.73214, 5.18884
0.3310083, -1.729271, 5.190435
0.3308448, -1.726402, 5.192029
0.3306812, -1.723533, 5.193624
0.3305176, -1.720664, 5.195218
0.3300145, -1.717485, 5.195901
0.3298511, -1.714618, 5.197494
0.3296877, -1.711752, 5.199087
0.3308798, -1.710093, 5.204347
0.3307158, -1.707216, 5.205945
0.3305517, -1.704339, 5.207544
0.331403, -1.702343, 5.211907
0.3312385, -1.699459, 5.213511
0.331074, -1.696573, 5.215114
0.3309095, -1.693688, 5.216717
0.330745, -1.690804, 5.21832
0.3305805, -1.687918, 5.219923
-0.0361577, -1.383106, -1000
-0.0361577, -1.383106, -1000
-0.0361577, -1.383106, -1000
0.4782422, -1.795199, 5.637508
0.4780111, -1.791145, 5.639761
0.47778, -1.787091, 5.642014
0.4775487, -1.783037, 5.644267
0.479, -1.780281, 5.651222
0.4787681, -1.776213, 5.653482
0.4785362, -1.772146, 5.655742
0.4783042, -1.768079, 5.658003
0.4780723, -1.764012, 5.660263
0.4801905, -1.761667, 5.669158
0.4799575, -1.757582, 5.671428
0.4797245, -1.753496, 5.673698
0.4794915, -1.74941, 5.675969
0.4816044, -1.746973, 5.684916
0.4813704, -1.742868, 5.687197
0.4834801, -1.740375, 5.696174
0.2299631, -1.862821, 4.741928
0.2309359, -1.862813, 4.745181
0.230824, -1.860849, 4.746272
0.230712, -1.858886, 4.747363
0.2306001, -1.856923, 4.748455
0.2304881, -1.85496, 4.749545
0.2303761, -1.852997, 4.750636
0.2389166, -1.86623, 4.769272
0.2388011, -1.864203, 4.770399
0.2444489, -1.872222, 4.783268
0.2443309, -1.870152, 4.784419
0.2442129, -1.868083, 4.785569
0.2458937, -1.869113, 4.790411
0.2490114, -1.872586, 4.798228
-0.0361577, -1.383106, -1000
0.2520049, -1.87388, 4.807255
0.2518833, -1.871749, 4.808439
0.2517619, -1.869618, 4.809623
0.2516404, -1.867488, 4.810807
0.2515189, -1.865357, 4.811991
0.2542658, -1.868016, 4.819177
0.2566519, -1.870036, 4.825634
0.2586776, -1.871426, 4.83136
0.2599853, -1.871602, 4.835593
0.25986, -1.869405, 4.836814
0.2633126, -1.873062, 4.845612
0.2692657, -1.880744, 4.859752
0.2719962, -1.883116, 4.867097
0.2736523, -1.883713, 4.87218
0.273521, -1.88141, 4.87346
0.2733897, -1.879107, 4.87474
0.2739721, -1.877942, 4.877553
0.2752674, -1.877901, 4.881907
0.2751351, -1.875582, 4.883196
0.2782107, -1.878315, 4.891423
0.2823524, -1.882678, 4.901994
0.2847098, -1.884196, 4.908731
0.2845733, -1.881803, 4.910061
0.2869276, -1.883265, 4.916829
0.2875014, -1.881949, 4.919726
0.2898522, -1.88335, 4.926528
0.2897133, -1.880914, 4.927881
0.2924161, -1.8828, 4.935497
0.2929861, -1.881418, 4.938431
0.2935555, -1.880025, 4.94137
0.2934148, -1.877557, 4.942742
0.2939833, -1.876148, 4.945691
0.2949056, -1.875255, 4.949436
0.2947641, -1.872774, 4.950815
0.2963934, -1.872901, 4.956159
0.2980212, -1.873001, 4.961518
0.2985859, -1.871526, 4.964504
0.2984425, -1.869013, 4.9659
0.3004206, -1.869566, 4.972091
0.3009831, -1.868053, 4.975097
0.3008386, -1.865519, 4.976505
0.3006941, -1.862985, 4.977913
0.3016084, -1.861951, 4.981737
0.3014635, -1.859409, 4.983149
0.3041396, -1.860827, 4.991025
0.3057559, -1.860725, 4.996496
0.306666, -1.859618, 5.00036
0.3065186, -1.857033, 5.001797
0.3102435, -1.859776, 5.012184
0.3111501, -1.858608, 5.016082
0.3110006, -1.855986, 5.01754
0.3038195, -1.843835, 5.002634
0.303673, -1.841266, 5.004062
0.3035265, -1.838697, 5.005489
0.3163717, -1.853462, 5.037352
-0.0361577, -1.383106, -1000
-0.0361577, -1.383106, -1000
0.3306436, -1.864801, 5.076532
0.3304851, -1.862023, 5.078077
0.3303267, -1.859244, 5.079621
0.3357717, -1.863706, 5.094468
0.3426121, -1.869882, 5.112694
0.3473469, -1.873269, 5.125973
0.3471809, -1.870357, 5.127591
0.3470148, -1.867446, 5.129209
0.3531392, -1.872441, 5.145926
0.3578607, -1.875594, 5.159335
0.3618797, -1.877805, 5.171101
0.361707, -1.874776, 5.172784
0.3615343, -1.871748, 5.174467
-0.0361577, -1.383106, -1000
-0.0361577, -1.383106, -1000
-0.0361577, -1.383106, -1000
-0.0361577, -1.383106, -1000
-0.0361577, -1.383106, -1000
-0.0361577, -1.383106, -1000
-0.0361577, -1.383106, -1000
-0.0361577, -1.383106, -1000
-0.0361577, -1.383106, -1000
-0.0361577, -1.383106, -1000
-0.0361577, -1.383106, -1000
-0.0361577, -1.383106, -1000
-0.0361577, -1.383106, -1000
-0.0361577, -1.383106, -1000
-0.0361577, -1.383106, -1000
-0.0361577, -1.383106, -1000
-0.0361577, -1.383106, -1000
-0.0361577, -1.383106, -1000
-0.0361577, -1.383106, -1000
-0.0361577, -1.383106, -1000
-0.0361577, -1.383106, -1000
-0.0361577, -1.383106, -1000
-0.0361577, -1.383106, -1000
-0.0361577, -1.383106, -1000
-0.0361577, -1.383106, -1000
0.3449724, -1.780422, 5.187318
0.344805, -1.777486, 5.188949
0.3418807, -1.771717, 5.183492
0.3417145, -1.768802, 5.185112
0.3415484, -1.765888, 5.186731
0.3393172, -1.760896, 5.183008
0.3391519, -1.757998, 5.184619
0.3389867, -1.7551, 5.186229
0.3374466, -1.750848, 5.18426
0.3372819, -1.74796, 5.185865
0.3360871, -1.744074, 5.184776
0.3359229, -1.741194, 5.186377
0.3357587, -1.738314, 5.187977
0.3342227, -1.734134, 5.185968
0.3340591, -1.731265, 5.187563
0.3338955, -1.728396, 5.189157
0.3337319, -1.725527, 5.190752
0.3335683, -1.722658, 5.192346
0.3334047, -1.719789, 5.193941
0.332899, -1.716611, 5.194624
0.3327356, -1.713744, 5.196217
0.3325722, -1.710878, 5.19781
0.333775, -1.709216, 5.203065
0.333611, -1.706339, 5.204664
0.3334469, -1.703461, 5.206263
0.3343062, -1.701464, 5.210622
0.3341417, -1.698579, 5.212225
0.3339772, -1.695694, 5.213829
0.3338127, -1.692809, 5.215432
0.3336482, -1.689924, 5.217035
0.3334837, -1.687039, 5.218639
-0.0361577, -1.383106, -1000
-0.0361577, -1.383106, -1000
-0.0361577, -1.383106, -1000
-0.0361577, -1.383106, -1000
0.4820906, -1.789909, 5.637955
0.4818594, -1.785855, 5.640208
0.4816282, -1.781801, 5.642461
0.4813971, -1.777747, 5.644714
0.4811659, -1.773693, 5.646967
0.482629, -1.770906, 5.653931
0.4823971, -1.766839, 5.656191
0.4821652, -1.762771, 5.658451
0.4819332, -1.758704, 5.660711
0.4817013, -1.754637, 5.662972
0.4814694, -1.75057, 5.665232
0.4836031, -1.748164, 5.67415
0.4857347, -1.745721, 5.683087
0.4855006, -1.741616, 5.685369
0.487629, -1.739118, 5.694338
0.2319306, -1.862224, 4.741057
0.2329114, -1.862214, 4.744307
0.2327995, -1.860251, 4.745398
0.2326875, -1.858288, 4.746489
0.2325756, -1.856324, 4.74758
0.2324637, -1.854361, 4.748671
0.2323517, -1.852398, 4.749762
0.2409563, -1.865612, 4.768369
0.2408408, -1.863585, 4.769496
0.2465314, -1.871591, 4.782347
0.2464134, -1.869522, 4.783497
0.2462954, -1.867452, 4.784647
0.2479895, -1.868478, 4.789484
0.2511313, -1.871943, 4.797289
0.2517354, -1.871064, 4.799941
0.2541488, -1.87323, 4.806305
0.2540273, -1.871099, 4.80749
0.2539059, -1.868969, 4.808674
0.2537844, -1.866838, 4.809858
0.2536629, -1.864708, 4.811042
0.2564312, -1.86736, 4.818218
0.258836, -1.869374, 4.824667
0.2608777, -1.870759, 4.830386
0.2650822, -1.875651, 4.840643
0.2649557, -1.873433, 4.841876
0.267713, -1.875891, 4.849159
0.2708281, -1.878889, 4.857225
0.2743006, -1.882418, 4.866077
0.27417, -1.880128, 4.86735
0.2740394, -1.877838, 4.868622
0.2739089, -1.875548, 4.869895
0.274857, -1.874964, 4.873463
0.2747259, -1.872666, 4.874741
0.2774689, -1.874875, 4.882163
0.2798504, -1.87648, 4.88884
0.2847423, -1.881954, 4.900936
0.2860421, -1.8818, 4.905347
0.2859061, -1.879415, 4.906672
0.28577, -1.877029, 4.907998
0.2892174, -1.880117, 4.917095
0.2923036, -1.882607, 4.925442
0.2921647, -1.880171, 4.926796
0.2948889, -1.882051, 4.934402
0.2961797, -1.88174, 4.9389
0.296039, -1.879272, 4.940271
0.2958983, -1.876804, 4.941643
0.2964721, -1.875394, 4.944589
0.2974025, -1.874499, 4.94833
0.297261, -1.872018, 4.949709
0.2989036, -1.87214, 4.955048
0.3005448, -1.872236, 4.960401
0.303967, -1.874884, 4.969743
0.3038225, -1.872349, 4.971151
0.3047467, -1.871345, 4.974953
0.3056699, -1.870326, 4.978764
0.3055245, -1.867775, 4.980181
0.305379, -1.865225, 4.981598
0.3059449, -1.863674, 4.984622
0.3057991, -1.861118, 4.986043
0.3077853, -1.861528, 4.992303
0.308349, -1.85994, 4.995348
0.3092671, -1.858829, 4.999209
0.3091197, -1.856245, 5.000646
0.3128741, -1.858979, 5.01102
0.315916, -1.860694, 5.019799
-0.0361577, -1.383106, -1000
0.3064046, -1.843051, 5.00149
0.3062581, -1.840482, 5.002918
0.3061116, -1.837914, 5.004345
-0.0361577, -1.383106, -1000
-0.0361577, -1.383106, -1000
-0.0361577, -1.383106, -1000
-0.0361577, -1.383106, -1000
-0.0361577, -1.383106, -1000
-0.0361577, -1.383106, -1000
0.3481387, -1.875042, 5.115628
0.3479738, -1.872149, 5.117236
0.3478088, -1.869256, 5.118844
0.3501109, -1.86947, 5.126294
0.3499449, -1.866558, 5.127912
0.3561172, -1.871538, 5.144608
0.3608762, -1.87468, 5.158
0.3607053, -1.871684, 5.159665
0.3605344, -1.868687, 5.16133
0.3645819, -1.870824, 5.173118
-0.0361577, -1.383106, -1000
-0.0361577, -1.383106, -1000
-0.0361577, -1.383106, -1000
-0.0361577, -1.383106, -1000
-0.0361577, -1.383106, -1000
-0.0361577, -1.383106, -1000
-0.0361577, -1.383106, -1000
-0.0361577, -1.383106, -1000
-0.0361577, -1.383106, -1000
-0.0361577, -1.383106, -1000
-0.0361577, -1.383106, -1000
-0.0361577, -1.383106, -1000
-0.0361577, -1.383106, -1000
-0.0361577, -1.383106, -1000
-0.0361577, -1.383106, -1000
-0.0361577, -1.383106, -1000
-0.0361577, -1.383106, -1000
-0.0361577, -1.383106, -1000
-0.0361577, -1.383106, -1000
-0.0361577, -1.383106, -1000
-0.0361577, -1.383106, -1000
-0.0361577, -1.383106, -1000
-0.0361577, -1.383106, -1000
-0.0361577, -1.383106, -1000
-0.0361577, -1.383106, -1000
-0.0361577, -1.383106, -1000
0.352623, -1.781577, 5.200009
0.3524535, -1.778604, 5.201661
0.3498541, -1.773176, 5.197109
0.3496857, -1.770221, 5.19875
0.3457021, -1.763467, 5.19061
0.3455353, -1.760542, 5.192235
0.3429428, -1.755236, 5.187615
0.341738, -1.751318, 5.186549
0.3415728, -1.748419, 5.18816
0.3414074, -1.745521, 5.18977
0.3398585, -1.741305, 5.187789
0.3396938, -1.738417, 5.189394
0.3384923, -1.734556, 5.188295
0.3383281, -1.731677, 5.189895
0.3381639, -1.728797, 5.191495
0.3362739, -1.724336, 5.188568
0.3361104, -1.721469, 5.190161
0.335947, -1.718603, 5.191754
0.3357836, -1.715737, 5.193347
0.3356201, -1.71287, 5.19494
0.3354567, -1.710004, 5.196533
0.3366702, -1.708338, 5.201784
0.3365061, -1.705461, 5.203382
0.3363421, -1.702584, 5.204981
0.3372095, -1.700584, 5.209337
0.337045, -1.697699, 5.21094
0.3368804, -1.694814, 5.212543
0.3380893, -1.693067, 5.21784
0.3379242, -1.690171, 5.219449
0.3377591, -1.687275, 5.221058
-0.0361577, -1.383106, -1000
-0.0361577, -1.383106, -1000
-0.0361577, -1.383106, -1000
-0.0361577, -1.383106, -1000
-0.0361577, -1.383106, -1000
-0.0361577, -1.383106, -1000
0.4857077, -1.780565, 5.640656
0.4854766, -1.776511, 5.642909
0.4852454, -1.772457, 5.645161
0.4891125, -1.771433, 5.658706
0.4864899, -1.765599, 5.654379
0.486258, -1.761531, 5.65664
0.4860261, -1.757464, 5.6589
0.4857942, -1.753397, 5.66116
0.4855622, -1.74933, 5.663421
0.4877146, -1.746918, 5.67233
0.4898649, -1.744469, 5.681259
0.4896309, -1.740365, 5.68354
0.491778, -1.737861, 5.692502
0.2338982, -1.861628, 4.740186
0.2352538, -1.862263, 4.744152
0.2351417, -1.860297, 4.745245
0.2350296, -1.858331, 4.746337
0.2345512, -1.855726, 4.746705
0.2344393, -1.853763, 4.747797
0.2343273, -1.851799, 4.748888
0.2393374, -1.858678, 4.76018
0.2443433, -1.865483, 4.771513
0.2504417, -1.874091, 4.785083
0.2525154, -1.87575, 4.790639
0.2534914, -1.875514, 4.79401
0.2533714, -1.873408, 4.79518
0.2532512, -1.871301, 4.796351
0.2538607, -1.87042, 4.799
0.2570221, -1.873801, 4.806838
0.2569003, -1.871665, 4.808025
0.2575073, -1.870739, 4.810699
0.2588419, -1.871007, 4.814868
0.2601755, -1.871254, 4.81905
0.2600521, -1.869092, 4.820251
0.26102, -1.868712, 4.823701
0.2630779, -1.870092, 4.829412
0.2665876, -1.873797, 4.838151
0.2664614, -1.871584, 4.83938
0.2692403, -1.874041, 4.846652
0.2731057, -1.878199, 4.856217
0.2758794, -1.880563, 4.863541
0.2764744, -1.87943, 4.866329
0.2763438, -1.87714, 4.867602
0.2762133, -1.87485, 4.868875
0.2771694, -1.874263, 4.87244
0.2770383, -1.871965, 4.873717
0.2798027, -1.874167, 4.88113
0.2822029, -1.875767, 4.887799
0.2853242, -1.878444, 4.896028
0.2877198, -1.879964, 4.902741
0.2875841, -1.877584, 4.904064
0.2881707, -1.876302, 4.906936
0.2916448, -1.879382, 4.91602
0.2940333, -1.880777, 4.922803
0.2938947, -1.878346, 4.924153
0.2973617, -1.881301, 4.933308
0.297582, -1.87938, 4.935455
0.2974417, -1.87692, 4.936822
0.2973014, -1.87446, 4.93819
0.3000408, -1.876223, 4.945847
0.3006189, -1.874793, 4.948801
0.3004771, -1.872306, 4.950183
0.3021328, -1.87242, 4.955518
0.3030684, -1.871472, 4.959284
0.3047214, -1.871537, 4.964646
0.3045776, -1.869016, 4.966046
0.307305, -1.87057, 4.973821
0.3089538, -1.870561, 4.979224
0.308808, -1.868006, 4.980644
0.3086623, -1.86545, 4.982064
0.3095914, -1.864391, 4.985892
0.3105197, -1.863315, 4.989728
0.3103731, -1.860744, 4.991157
0.3109421, -1.859154, 4.994201
0.3140143, -1.86097, 5.002908
0.313866, -1.858369, 5.004353
0.3176489, -1.861079, 5.014724
-0.0361577, -1.383106, -1000
-0.0361577, -1.383106, -1000
-0.0361577, -1.383106, -1000
-0.0361577, -1.383106, -1000
-0.0361577, -1.383106, -1000
-0.0361577, -1.383106, -1000
-0.0361577, -1.383106, -1000
-0.0361577, -1.383106, -1000
-0.0361577, -1.383106, -1000
-0.0361577, -1.383106, -1000
-0.0361577, -1.383106, -1000
0.35105, -1.87416, 5.11434
0.3473309, -1.866784, 5.107642
0.3471674, -1.863918, 5.109235
0.347004, -1.861052, 5.110828
0.3553595, -1.868752, 5.13246
0.3601596, -1.871949, 5.145799
0.3638917, -1.873766, 5.156665
0.3637208, -1.87077, 5.15833
0.3635499, -1.867773, 5.159996
0.3676294, -1.869901, 5.171769
-0.0361577, -1.383106, -1000
-0.0361577, -1.383106, -1000
-0.0361577, -1.383106, -1000
-0.0361577, -1.383106, -1000
-0.0361577, -1.383106, -1000
-0.0361577, -1.383106, -1000
-0.0361577, -1.383106, -1000
-0.0361577, -1.383106, -1000
-0.0361577, -1.383106, -1000
-0.0361577, -1.383106, -1000
-0.0361577, -1.383106, -1000
-0.0361577, -1.383106, -1000
-0.0361577, -1.383106, -1000
-0.0361577, -1.383106, -1000
-0.0361577, -1.383106, -1000
-0.0361577, -1.383106, -1000
-0.0361577, -1.383106, -1000
-0.0361577, -1.383106, -1000
-0.0361577, -1.383106, -1000
-0.0361577, -1.383106, -1000
-0.0361577, -1.383106, -1000
-0.0361577, -1.383106, -1000
-0.0361577, -1.383106, -1000
-0.0361577, -1.383106, -1000
-0.0361577, -1.383106, -1000
-0.0361577, -1.383106, -1000
-0.0361577, -1.383106, -1000
-0.0361577, -1.383106, -1000
0.3552755, -1.774725, 5.201989
0.355106, -1.771752, 5.203641
0.3535385, -1.767401, 5.201741
0.349876, -1.761019, 5.194491
0.3497087, -1.758083, 5.196122
0.3457017, -1.751444, 5.187935
0.345536, -1.748538, 5.18955
0.344324, -1.744637, 5.188479
0.3427644, -1.740424, 5.186502
0.3425997, -1.737536, 5.188107
0.3413902, -1.733678, 5.187012
0.341226, -1.730799, 5.188612
0.3410618, -1.727919, 5.190213
0.3391584, -1.723462, 5.187292
0.3389949, -1.720596, 5.188884
0.3388315, -1.717729, 5.190478
0.3400576, -1.716093, 5.195705
0.3398935, -1.713215, 5.197304
0.3397294, -1.710338, 5.198904
0.3395654, -1.707461, 5.200502
0.3394013, -1.704584, 5.202101
0.3392373, -1.701707, 5.2037
0.3401126, -1.699705, 5.208052
0.3399481, -1.69682, 5.209655
0.3397836, -1.693934, 5.211258
0.3410032, -1.692184, 5.21655
0.3408381, -1.689288, 5.21816
0.340673, -1.686392, 5.219769
-0.0361577, -1.383106, -1000
-0.0361577, -1.383106, -1000
-0.0361577, -1.383106, -1000
-0.0361577, -1.383106, -1000
-0.0361577, -1.383106, -1000
-0.0361577, -1.383106, -1000
0.4897871, -1.779329, 5.63885
0.489556, -1.775275, 5.641103
0.4893248, -1.771221, 5.643356
0.493224, -1.770187, 5.656886
0.4905827, -1.764358, 5.652567
0.4903508, -1.760291, 5.654828
0.4901189, -1.756224, 5.657088
0.489887, -1.752157, 5.659348
0.4896551, -1.74809, 5.661609
0.4918262, -1.745672, 5.67051
0.4939952, -1.743218, 5.679431
0.4937611, -1.739114, 5.681712
0.495927, -1.736604, 5.690665
0.2362354, -1.861681, 4.740033
0.2379709, -1.862957, 4.744713
0.2378586, -1.860986, 4.745809
0.2377461, -1.859015, 4.746904
0.2376337, -1.857043, 4.748
0.2375214, -1.855072, 4.749096
0.2374089, -1.853101, 4.750191
0.2413504, -1.858068, 4.759289
0.2548667, -1.879308, 4.787372
0.254747, -1.877209, 4.788538
0.2572038, -1.87947, 4.794828
0.2556114, -1.874872, 4.793071
0.2554913, -1.872765, 4.794242
0.2553712, -1.870659, 4.795413
0.255986, -1.869776, 4.798059
0.2591715, -1.87315, 4.805886
0.2590497, -1.871014, 4.807073
0.2596619, -1.870086, 4.809745
0.2610074, -1.870351, 4.81391
0.2623515, -1.870595, 4.818086
0.2622282, -1.868433, 4.819288
0.2632042, -1.868051, 4.822734
0.2652779, -1.869426, 4.828438
0.2688144, -1.873122, 4.837165
0.2686883, -1.870909, 4.838394
0.2714885, -1.87336, 4.845656
0.2753834, -1.877509, 4.855209
0.2781784, -1.879866, 4.862523
0.2787788, -1.878731, 4.86531
0.2786483, -1.876441, 4.866582
0.2785176, -1.874151, 4.867855
0.2794818, -1.873563, 4.871416
0.2793507, -1.871265, 4.872694
0.2821365, -1.87346, 4.880097
0.2845553, -1.875054, 4.886758
0.2877007, -1.877724, 4.894976
0.2901151, -1.879238, 4.901681
0.2899794, -1.876858, 4.903004
0.2905713, -1.875574, 4.905873
0.2940722, -1.878646, 4.914946
0.2964794, -1.880036, 4.92172
0.2963408, -1.877605, 4.923071
0.2998345, -1.880552, 4.932213
0.3000575, -1.87863, 4.93436
0.2999172, -1.87617, 4.935727
0.2997769, -1.87371, 4.937094
0.3025377, -1.875467, 4.944741
0.3031211, -1.874035, 4.947693
0.3029794, -1.871548, 4.949075
0.3046484, -1.871657, 4.954405
0.3055919, -1.870707, 4.958167
0.3072583, -1.870769, 4.963523
0.3071146, -1.868248, 4.964924
0.3098634, -1.869795, 4.972688
0.3115255, -1.869782, 4.978086
0.3113798, -1.867227, 4.979506
0.3112341, -1.864671, 4.980926
0.3121712, -1.863609, 4.98475
0.3131074, -1.862531, 4.988583
0.3129608, -1.85996, 4.990012
0.3135352, -1.858368, 4.993052
0.3166314, -1.860177, 5.00175
0.3164831, -1.857576, 5.003195
0.3202955, -1.860277, 5.013552
-0.0361577, -1.383106, -1000
-0.0361577, -1.383106, -1000
-0.0361577, -1.383106, -1000
-0.0361577, -1.383106, -1000
-0.0361577, -1.383106, -1000
-0.0361577, -1.383106, -1000
-0.0361577, -1.383106, -1000
-0.0361577, -1.383106, -1000
-0.0361577, -1.383106, -1000
-0.0361577, -1.383106, -1000
-0.0361577, -1.383106, -1000
0.3539612, -1.873278, 5.113051
0.3502154, -1.865911, 5.106365
0.3500519, -1.863044, 5.107958
0.3498885, -1.860178, 5.109551
0.3583082, -1.867859, 5.131155
0.3631458, -1.871044, 5.144477
0.3669071, -1.872853, 5.155331
0.3667363, -1.869856, 5.156996
0.3665654, -1.866859, 5.158661
0.370677, -1.868977, 5.170421
-0.0361577, -1.383106, -1000
-0.0361577, -1.383106, -1000
-0.0361577, -1.383106, -1000
-0.0361577, -1.383106, -1000
-0.0361577, -1.383106, -1000
-0.0361577, -1.383106, -1000
-0.0361577, -1.383106, -1000
-0.0361577, -1.383106, -1000
-0.0361577, -1.383106, -1000
-0.0361577, -1.383106, -1000
-0.0361577, -1.383106, -1000
-0.0361577, -1.383106, -1000
-0.0361577, -1.383106, -1000
-0.0361577, -1.383106, -1000
-0.0361577, -1.383106, -1000
-0.0361577, -1.383106, -1000
-0.0361577, -1.383106, -1000
-0.0361577, -1.383106, -1000
-0.0361577, -1.383106, -1000
-0.0361577, -1.383106, -1000
-0.0361577, -1.383106, -1000
-0.0361577, -1.383106, -1000
