0.03315483, -1.382836, -1000
0.03315483, -1.382836, -1000
0.03315483, -1.382836, -1000
0.03315483, -1.382836, -1000
0.03315483, -1.382836, -1000
0.03315483, -1.382836, -1000
0.03315483, -1.382836, -1000
0.03315483, -1.382836, -1000
0.03315483, -1.382836, -1000
0.03315483, -1.382836, -1000
-0.9722718, -1.888594, 5.252522
-0.9725014, -1.884568, 5.25476
-0.972731, -1.880541, 5.256998
-0.9908206, -1.885278, 5.277727
-0.9910543, -1.88118, 5.280005
-1.000553, -1.881552, 5.291912
0.03315483, -1.382836, -1000
0.03315483, -1.382836, -1000
0.03315483, -1.382836, -1000
0.03315483, -1.382836, -1000
0.03315483, -1.382836, -1000
0.03315483, -1.382836, -1000
-1.317053, -1.995463, 5.639606
-1.317361, -1.990071, 5.642604
-1.317668, -1.984678, 5.645601
-1.317976, -1.979285, 5.648598
-1.33487, -1.981147, 5.669195
-1.335181, -1.975688, 5.672228
-1.335492, -1.97023, 5.675262
-1.34377, -1.968158, 5.686797
-1.344083, -1.962667, 5.689849
-1.369636, -1.9677, 5.719932
-1.369955, -1.962109, 5.72304
-1.370274, -1.956518, 5.726147
-1.370593, -1.950927, 5.729254
-1.370911, -1.945336, 5.732362
-1.37123, -1.939745, 5.735469
-1.371549, -1.934154, 5.738576
-1.398478, -1.938898, 5.77055
-1.408119, -1.936782, 5.78384
-1.408446, -1.931048, 5.787027
-1.408773, -1.925314, 5.790214
-1.4091, -1.91958, 5.793401
-1.382786, -1.90404, 5.767426
-1.357127, -1.888954, 5.742065
-1.357442, -1.883429, 5.745136
-1.357757, -1.877904, 5.748207
-1.358072, -1.872379, 5.751277
-1.375056, -1.872652, 5.772757
-1.366705, -1.864081, 5.766273
-1.367022, -1.858524, 5.769361
-1.367339, -1.852967, 5.772449
-1.366989, -1.847189, 5.774795
-1.367305, -1.841635, 5.777882
-1.367622, -1.836082, 5.780969
-1.367939, -1.830528, 5.784055
-1.368255, -1.824974, 5.787142
-1.368572, -1.81942, 5.790229
-1.377576, -1.816536, 5.80308
-1.377895, -1.810948, 5.806186
-1.396266, -1.810764, 5.82965
-1.396588, -1.805104, 5.832796
-1.362129, -1.789311, 5.796579
-1.337021, -1.776485, 5.770827
-1.33733, -1.771064, 5.77384
-1.337639, -1.765642, 5.776854
-1.337949, -1.76022, 5.779867
-1.338258, -1.754799, 5.78288
-1.322492, -1.745082, 5.767514
-1.322798, -1.739723, 5.770492
-1.307021, -1.730197, 5.75502
-1.307323, -1.724903, 5.757963
-1.307625, -1.719608, 5.760905
-1.285128, -1.708678, 5.73756
-1.285425, -1.703474, 5.740453
-1.285722, -1.698269, 5.743346
-1.286019, -1.693065, 5.746238
0.03315483, -1.382836, -1000
0.03315483, -1.382836, -1000
0.03315483, -1.382836, -1000
0.03315483, -1.382836, -1000
0.03315483, -1.382836, -1000
0.03315483, -1.382836, -1000
0.03315483, -1.382836, -1000
0.03315483, -1.382836, -1000
-0.5209262, -1.861867, 4.695483
-0.5210558, -1.859596, 4.696745
-0.5211853, -1.857324, 4.698008
-0.5213149, -1.855053, 4.69927
-0.5227371, -1.853877, 4.701658
-0.522867, -1.851601, 4.702923
-0.5301104, -1.85529, 4.710414
-0.5315356, -1.854064, 4.71283
-0.5394312, -1.858199, 4.72094
-0.5395648, -1.855856, 4.722242
-0.5468187, -1.859363, 4.729834
-0.5547232, -1.863342, 4.73803
-0.5626314, -1.867257, 4.746264
-0.5647135, -1.866393, 4.749345
-0.5648529, -1.863949, 4.750703
0.03315483, -1.382836, -1000
0.03315483, -1.382836, -1000
-0.5730511, -1.862779, 4.761762
-0.5731922, -1.860304, 4.763138
-0.5733334, -1.857828, 4.764513
-0.578665, -1.859396, 4.770581
-0.5788074, -1.8569, 4.771968
-0.5841425, -1.858404, 4.778071
-0.5894801, -1.859866, 4.784197
-0.5915731, -1.858811, 4.787386
-0.5917183, -1.856265, 4.788801
-0.5990103, -1.859102, 4.796765
-0.6063057, -1.861882, 4.804761
-0.6084043, -1.860729, 4.808003
-0.6085532, -1.858117, 4.809455
-0.6106532, -1.85694, 4.812711
-0.6160064, -1.85813, 4.818989
-0.6161571, -1.855487, 4.820457
-0.6241168, -1.858497, 4.829193
-0.6262221, -1.857228, 4.8325
-0.6283282, -1.855943, 4.835816
-0.6284816, -1.853254, 4.837311
-0.6325431, -1.853326, 4.842474
-0.634652, -1.851994, 4.845817
-0.6348067, -1.849281, 4.847325
-0.6388724, -1.849282, 4.852529
-0.6455478, -1.85105, 4.860219
-0.6535304, -1.85366, 4.869177
-0.6536894, -1.850872, 4.870727
-0.6603726, -1.852503, 4.878494
-0.6735845, -1.858472, 4.892523
-0.6828862, -1.861717, 4.902863
-0.687622, -1.86185, 4.90886
-0.6877886, -1.858927, 4.910484
0.03315483, -1.382836, -1000
0.03315483, -1.382836, -1000
0.03315483, -1.382836, -1000
0.03315483, -1.382836, -1000
0.03315483, -1.382836, -1000
0.03315483, -1.382836, -1000
-0.7314709, -1.865296, 4.963322
-0.7316474, -1.862201, 4.965042
-0.7318239, -1.859106, 4.966763
-0.752291, -1.86856, 4.988396
-0.7793145, -1.88187, 5.01656
-0.7795018, -1.878585, 5.018386
0.03315483, -1.382836, -1000
0.03315483, -1.382836, -1000
0.03315483, -1.382836, -1000
0.03315483, -1.382836, -1000
0.03315483, -1.382836, -1000
0.03315483, -1.382836, -1000
0.03315483, -1.382836, -1000
0.03315483, -1.382836, -1000
0.03315483, -1.382836, -1000
0.03315483, -1.382836, -1000
0.03315483, -1.382836, -1000
0.03315483, -1.382836, -1000
0.03315483, -1.382836, -1000
0.03315483, -1.382836, -1000
0.03315483, -1.382836, -1000
0.03315483, -1.382836, -1000
0.03315483, -1.382836, -1000
0.03315483, -1.382836, -1000
0.03315483, -1.382836, -1000
0.03315483, -1.382836, -1000
0.03315483, -1.382836, -1000
0.03315483, -1.382836, -1000
0.03315483, -1.382836, -1000
0.03315483, -1.382836, -1000
-0.9685975, -1.889775, 5.255024
-0.9596044, -1.881119, 5.247691
-0.9598318, -1.87713, 5.249909
-0.9600594, -1.873141, 5.252126
-0.9695159, -1.873669, 5.263975
-0.9967797, -1.882765, 5.294481
0.03315483, -1.382836, -1000
0.03315483, -1.382836, -1000
0.03315483, -1.382836, -1000
0.03315483, -1.382836, -1000
0.03315483, -1.382836, -1000
0.03315483, -1.382836, -1000
-1.296282, -1.989808, 5.626163
-1.296586, -1.984479, 5.629124
-1.29689, -1.97915, 5.632086
-1.313055, -1.980867, 5.651948
-1.337821, -1.986239, 5.681055
-1.346729, -1.984497, 5.693298
-1.347044, -1.978972, 5.696369
-1.355297, -1.976843, 5.707961
-1.364215, -1.974931, 5.720299
-1.364534, -1.96934, 5.723406
-1.364853, -1.963749, 5.726513
-1.365172, -1.958158, 5.72962
-1.365491, -1.952567, 5.732728
-1.375083, -1.950715, 5.7459
-1.384017, -1.948525, 5.758393
-1.38434, -1.942863, 5.761539
-1.39328, -1.940569, 5.77409
-1.412168, -1.942055, 5.79755
-1.412498, -1.936284, 5.800757
-1.422113, -1.93403, 5.814153
-1.431732, -1.931702, 5.82759
-1.37765, -1.90569, 5.770924
-1.368679, -1.896656, 5.763802
-1.3524, -1.885049, 5.748569
-1.352715, -1.879524, 5.751639
-1.35303, -1.873999, 5.75471
-1.369954, -1.874292, 5.776231
-1.369609, -1.868471, 5.778599
-1.369927, -1.862882, 5.781705
-1.370246, -1.857294, 5.784811
-1.36192, -1.848818, 5.778246
-1.362237, -1.843264, 5.781333
-1.362554, -1.83771, 5.78442
-1.362871, -1.832156, 5.787506
-1.363187, -1.826602, 5.790593
-1.363504, -1.821048, 5.79368
-1.372477, -1.818175, 5.806552
-1.372796, -1.812587, 5.809658
-1.391101, -1.812424, 5.833167
-1.391423, -1.806764, 5.836312
-1.35709, -1.790931, 5.80001
-1.332074, -1.778075, 5.774196
-1.332383, -1.772654, 5.777209
-1.332692, -1.767232, 5.780222
-1.349678, -1.766436, 5.802348
-1.349991, -1.760949, 5.805398
-1.33362, -1.750967, 5.789262
-1.333929, -1.745546, 5.792275
-1.30219, -1.73175, 5.758309
-1.302491, -1.726455, 5.761252
-1.302794, -1.721161, 5.764194
-1.303095, -1.715866, 5.767138
-1.303397, -1.710572, 5.77008
-1.303699, -1.705277, 5.773023
-1.312024, -1.701885, 5.785316
0.03315483, -1.382836, -1000
0.03315483, -1.382836, -1000
0.03315483, -1.382836, -1000
0.03315483, -1.382836, -1000
0.03315483, -1.382836, -1000
0.03315483, -1.382836, -1000
0.03315483, -1.382836, -1000
0.03315483, -1.382836, -1000
-0.5188535, -1.862533, 4.696894
-0.5189831, -1.860262, 4.698156
-0.5191126, -1.857991, 4.699419
-0.5192421, -1.855719, 4.700681
-0.5206596, -1.854545, 4.703073
-0.5207894, -1.852268, 4.704338
-0.5280063, -1.855967, 4.711846
-0.5294266, -1.854742, 4.714265
-0.5372933, -1.858886, 4.722395
-0.5374269, -1.856543, 4.723698
-0.5446542, -1.860059, 4.731308
-0.5525298, -1.864047, 4.739524
-0.5604089, -1.867971, 4.747777
-0.5624838, -1.86711, 4.750864
-0.5626231, -1.864666, 4.752222
0.03315483, -1.382836, -1000
0.03315483, -1.382836, -1000
-0.5707923, -1.863505, 4.7633
-0.5709336, -1.86103, 4.764676
-0.5710747, -1.858554, 4.766051
-0.576387, -1.860128, 4.772132
-0.5765293, -1.857632, 4.77352
-0.5818452, -1.859142, 4.779635
-0.5871634, -1.86061, 4.785775
-0.5892492, -1.859558, 4.788968
-0.5893944, -1.857012, 4.790383
-0.5966598, -1.859858, 4.798365
-0.6039286, -1.862646, 4.806379
-0.6060199, -1.861495, 4.809627
-0.606169, -1.858883, 4.811079
-0.6082616, -1.857709, 4.81434
-0.6135955, -1.858904, 4.820631
-0.6137461, -1.856262, 4.822099
-0.621677, -1.859281, 4.830854
-0.6237749, -1.858015, 4.834167
-0.6258739, -1.856732, 4.837487
-0.6260272, -1.854043, 4.838982
-0.6300743, -1.85412, 4.844156
-0.6321759, -1.85279, 4.847503
-0.6323306, -1.850076, 4.849011
-0.6363818, -1.850082, 4.854225
-0.643033, -1.851858, 4.861932
-0.6509866, -1.854477, 4.870909
-0.6511456, -1.85169, 4.872458
-0.6578047, -1.853328, 4.880242
-0.6709683, -1.859313, 4.894304
-0.6802362, -1.862569, 4.904667
-0.6849549, -1.862707, 4.910676
-0.6851217, -1.859785, 4.9123
0.03315483, -1.382836, -1000
0.03315483, -1.382836, -1000
0.03315483, -1.382836, -1000
0.03315483, -1.382836, -1000
0.03315483, -1.382836, -1000
0.03315483, -1.382836, -1000
-0.7306019, -1.867444, 4.967164
-0.7307789, -1.864341, 4.968888
-0.7309558, -1.861239, 4.970613
-0.7493922, -1.869491, 4.99037
0.03315483, -1.382836, -1000
0.03315483, -1.382836, -1000
0.03315483, -1.382836, -1000
0.03315483, -1.382836, -1000
0.03315483, -1.382836, -1000
0.03315483, -1.382836, -1000
0.03315483, -1.382836, -1000
0.03315483, -1.382836, -1000
0.03315483, -1.382836, -1000
0.03315483, -1.382836, -1000
0.03315483, -1.382836, -1000
0.03315483, -1.382836, -1000
0.03315483, -1.382836, -1000
0.03315483, -1.382836, -1000
0.03315483, -1.382836, -1000
0.03315483, -1.382836, -1000
0.03315483, -1.382836, -1000
0.03315483, -1.382836, -1000
0.03315483, -1.382836, -1000
0.03315483, -1.382836, -1000
0.03315483, -1.382836, -1000
0.03315483, -1.382836, -1000
0.03315483, -1.382836, -1000
0.03315483, -1.382836, -1000
0.03315483, -1.382836, -1000
0.03315483, -1.382836, -1000
0.03315483, -1.382836, -1000
-0.9559639, -1.88229, 5.25017
-0.9561913, -1.8783, 5.252388
-0.9564189, -1.874311, 5.254604
-0.9658417, -1.87485, 5.266477
0.03315483, -1.382836, -1000
0.03315483, -1.382836, -1000
0.03315483, -1.382836, -1000
0.03315483, -1.382836, -1000
0.03315483, -1.382836, -1000
0.03315483, -1.382836, -1000
0.03315483, -1.382836, -1000
-1.29142, -1.991371, 5.629474
-1.291723, -1.986042, 5.632436
-1.292027, -1.980713, 5.635397
-1.308134, -1.982449, 5.655299
-1.33281, -1.987849, 5.684465
-1.341688, -1.986117, 5.696731
-1.342003, -1.980592, 5.699801
-1.350227, -1.978472, 5.711412
-1.359113, -1.976571, 5.723773
-1.359432, -1.970979, 5.72688
-1.359751, -1.965388, 5.729987
-1.36007, -1.959797, 5.733095
-1.360389, -1.954206, 5.736202
-1.378527, -1.955848, 5.758764
-1.37885, -1.950186, 5.761911
-1.379173, -1.944523, 5.765058
-1.397327, -1.945879, 5.787779
-1.406902, -1.943748, 5.801136
-1.407231, -1.937976, 5.804343
-1.416812, -1.935733, 5.817761
-1.426398, -1.933416, 5.831221
-1.389705, -1.913755, 5.793461
-1.363577, -1.898296, 5.767275
-1.363896, -1.892705, 5.770383
-1.364215, -1.887114, 5.77349
-1.373137, -1.884592, 5.786194
-1.373458, -1.878967, 5.78932
-1.364509, -1.87011, 5.782071
-1.364828, -1.864521, 5.785177
-1.365147, -1.858933, 5.788283
-1.365465, -1.853345, 5.791389
-1.365784, -1.847756, 5.794495
-1.349532, -1.836728, 5.778888
-1.349846, -1.831206, 5.781958
-1.350161, -1.825684, 5.785027
-1.358436, -1.822677, 5.797131
-1.376666, -1.822712, 5.820586
-1.376986, -1.817087, 5.823712
-1.385936, -1.814084, 5.836683
-1.386259, -1.808424, 5.839829
-1.352051, -1.79255, 5.803441
-1.343731, -1.784509, 5.796608
-1.344044, -1.779022, 5.799658
-1.344357, -1.773534, 5.802708
-1.34467, -1.768046, 5.805758
-1.344983, -1.762558, 5.808808
-1.320693, -1.750391, 5.783401
-1.321, -1.745001, 5.786397
-1.313324, -1.737508, 5.780128
-1.305645, -1.730079, 5.773824
-1.305949, -1.724753, 5.776784
-1.306252, -1.719427, 5.779745
-1.330527, -1.720027, 5.81071
-1.330836, -1.714606, 5.813723
-1.339139, -1.711096, 5.826106
0.03315483, -1.382836, -1000
-0.4921981, -1.857698, 4.669117
-0.492322, -1.855525, 4.670325
-0.4924459, -1.853352, 4.671533
-0.5015348, -1.859164, 4.680503
-0.5016608, -1.856954, 4.681732
-0.5017869, -1.854743, 4.682961
0.03315483, -1.382836, -1000
0.03315483, -1.382836, -1000
-0.5169104, -1.860928, 4.699568
-0.5170399, -1.858657, 4.70083
-0.5171694, -1.856385, 4.702093
-0.5185821, -1.855212, 4.704487
-0.5187119, -1.852936, 4.705753
-0.5246184, -1.855555, 4.712141
-0.5247496, -1.853255, 4.713419
-0.5248808, -1.850954, 4.714698
-0.535289, -1.85723, 4.725153
-0.5367075, -1.855954, 4.727606
-0.542625, -1.858383, 4.734099
-0.5504734, -1.862348, 4.742354
-0.5551108, -1.863622, 4.747746
-0.555249, -1.8612, 4.749093
-0.5586032, -1.861379, 4.753351
-0.5619589, -1.861531, 4.757624
-0.5620985, -1.859082, 4.758985
-0.5622381, -1.856633, 4.760345
-0.5675284, -1.858261, 4.766413
-0.572821, -1.859847, 4.772504
-0.572963, -1.857356, 4.773888
-0.577615, -1.858376, 4.779421
-0.5829135, -1.859858, 4.78557
-0.5901482, -1.862787, 4.793528
-0.5902941, -1.860227, 4.794951
-0.5955991, -1.861595, 4.801163
-0.5976814, -1.860479, 4.804398
-0.6017001, -1.860805, 4.809446
-0.6018487, -1.8582, 4.810893
-0.6058701, -1.858478, 4.815968
-0.6111846, -1.859679, 4.822272
-0.6113352, -1.857037, 4.82374
-0.6172993, -1.858648, 4.830689
0.03315483, -1.382836, -1000
0.03315483, -1.382836, -1000
0.03315483, -1.382836, -1000
-0.629545, -1.856299, 4.847681
-0.6296998, -1.853585, 4.849189
-0.6298545, -1.850872, 4.850698
-0.6338912, -1.850883, 4.855921
-0.6405182, -1.852666, 4.863644
-0.6477957, -1.854846, 4.872019
-0.6479545, -1.852061, 4.873567
-0.6578271, -1.855927, 4.88449
-0.6709431, -1.861917, 4.898592
-0.6801777, -1.865173, 4.908983
-0.6848803, -1.865306, 4.915009
-0.6915296, -1.866701, 4.92295
-0.6916983, -1.863741, 4.924594
0.03315483, -1.382836, -1000
-0.7017656, -1.864195, 4.937415
-0.7019367, -1.861196, 4.939082
-0.7021077, -1.858196, 4.940749
-0.7172081, -1.864786, 4.957131
-0.7173826, -1.861725, 4.958832
-0.7175571, -1.858665, 4.960532
-0.7281246, -1.862149, 4.97254
-0.7438944, -1.868798, 4.989761
0.03315483, -1.382836, -1000
0.03315483, -1.382836, -1000
0.03315483, -1.382836, -1000
0.03315483, -1.382836, -1000
0.03315483, -1.382836, -1000
0.03315483, -1.382836, -1000
0.03315483, -1.382836, -1000
0.03315483, -1.382836, -1000
0.03315483, -1.382836, -1000
0.03315483, -1.382836, -1000
0.03315483, -1.382836, -1000
0.03315483, -1.382836, -1000
0.03315483, -1.382836, -1000
0.03315483, -1.382836, -1000
0.03315483, -1.382836, -1000
0.03315483, -1.382836, -1000
0.03315483, -1.382836, -1000
0.03315483, -1.382836, -1000
0.03315483, -1.382836, -1000
0.03315483, -1.382836, -1000
0.03315483, -1.382836, -1000
0.03315483, -1.382836, -1000
0.03315483, -1.382836, -1000
0.03315483, -1.382836, -1000
0.03315483, -1.382836, -1000
0.03315483, -1.382836, -1000
0.03315483, -1.382836, -1000
-0.9483998, -1.881466, 5.248528
-0.9486264, -1.877493, 5.250736
-0.948853, -1.873519, 5.252944
-0.9530059, -1.871491, 5.259301
-0.9663242, -1.873934, 5.275373
-0.9665546, -1.869892, 5.277619
-0.9713691, -1.868063, 5.284736
0.03315483, -1.382836, -1000
0.03315483, -1.382836, -1000
0.03315483, -1.382836, -1000
0.03315483, -1.382836, -1000
-1.27869, -1.989297, 5.624348
-1.278992, -1.983999, 5.627292
-1.279294, -1.978702, 5.630236
-1.287468, -1.976947, 5.64167
-1.311395, -1.982147, 5.670154
-1.311705, -1.976723, 5.673168
-1.320549, -1.975033, 5.685437
-1.32874, -1.972988, 5.697031
-1.329053, -1.967498, 5.700083
-1.337906, -1.965638, 5.712446
-1.338221, -1.960113, 5.715517
-1.338536, -1.954588, 5.718587
-1.338851, -1.949063, 5.721658
-1.347057, -1.946762, 5.733395
-1.347374, -1.941206, 5.736483
-1.365453, -1.94276, 5.75915
-1.374328, -1.940521, 5.771723
-1.401636, -1.94544, 5.804721
-1.401965, -1.939669, 5.807929
-1.411512, -1.937437, 5.82137
-1.421064, -1.935131, 5.834853
-1.384507, -1.915426, 5.797
-1.358475, -1.899936, 5.770749
-1.358794, -1.894345, 5.773857
-1.358454, -1.888514, 5.776226
-1.358772, -1.882926, 5.779332
-1.359091, -1.877337, 5.782438
-1.359409, -1.871749, 5.785543
-1.359728, -1.86616, 5.78865
-1.360047, -1.860572, 5.791755
-1.360366, -1.854984, 5.794861
-1.360684, -1.849395, 5.797967
-1.344492, -1.838348, 5.782319
-1.344807, -1.832825, 5.785388
-1.345122, -1.827303, 5.788458
-1.353368, -1.824306, 5.800581
-1.371532, -1.824362, 5.824081
-1.371853, -1.818737, 5.827207
-1.380771, -1.815743, 5.8402
-1.381094, -1.810084, 5.843346
-1.347012, -1.79417, 5.806872
-1.338723, -1.786119, 5.800017
-1.339036, -1.780631, 5.803068
-1.339349, -1.775143, 5.806118
-1.339662, -1.769655, 5.809167
-1.339975, -1.764168, 5.812217
-1.315774, -1.751971, 5.78675
-1.316082, -1.746582, 5.789746
-1.308435, -1.73908, 5.783457
-1.300784, -1.731641, 5.777133
-1.301088, -1.726315, 5.780094
-1.301392, -1.720989, 5.783054
-1.32558, -1.721617, 5.814078
-1.325889, -1.716196, 5.817092
-1.334163, -1.712696, 5.829495
0.03315483, -1.382836, -1000
-0.4902148, -1.858336, 4.670467
-0.4903387, -1.856162, 4.671676
-0.4904627, -1.853989, 4.672884
-0.4944142, -1.855243, 4.677428
-0.4945391, -1.853054, 4.678645
-0.4959404, -1.851996, 4.68098
-0.5024494, -1.855435, 4.687805
0.03315483, -1.382836, -1000
-0.5161151, -1.86271, 4.702106
-0.5162449, -1.860434, 4.703372
-0.5150968, -1.857051, 4.703504
-0.5152263, -1.85478, 4.704766
-0.5153558, -1.852509, 4.706028
-0.5167642, -1.851327, 4.708433
-0.5226504, -1.853929, 4.714849
-0.5227816, -1.851629, 4.716127
-0.5299516, -1.855233, 4.723733
-0.5300844, -1.852904, 4.725028
-0.5346987, -1.854295, 4.73037
-0.5348325, -1.851947, 4.731675
-0.5426524, -1.855913, 4.739954
-0.5517572, -1.860863, 4.749432
-0.5518951, -1.858447, 4.750775
-0.5552377, -1.858621, 4.755046
-0.5553762, -1.856191, 4.756397
-0.5567973, -1.854786, 4.758924
-0.5620674, -1.856434, 4.764997
-0.5622075, -1.853977, 4.766363
-0.5687647, -1.856571, 4.773657
-0.5740411, -1.858107, 4.779792
-0.5773939, -1.858101, 4.784163
-0.5775375, -1.855584, 4.785562
-0.5808927, -1.855539, 4.789955
-0.5861768, -1.856942, 4.796164
-0.593391, -1.859771, 4.804201
-0.5973947, -1.860109, 4.809255
-0.5975429, -1.857512, 4.810698
-0.6034785, -1.859246, 4.817596
-0.606844, -1.859018, 4.822091
-0.6069942, -1.856384, 4.823555
-0.6129361, -1.85801, 4.830513
0.03315483, -1.382836, -1000
0.03315483, -1.382836, -1000
0.03315483, -1.382836, -1000
-0.6270689, -1.857095, 4.849367
-0.6272237, -1.854381, 4.850875
-0.6273783, -1.851668, 4.852383
-0.6391354, -1.85714, 4.865067
-0.6392929, -1.854379, 4.866601
-0.6452543, -1.855663, 4.873749
-0.6454131, -1.852878, 4.875297
-0.6520237, -1.854535, 4.883112
-0.6696078, -1.863644, 4.901636
-0.678809, -1.866905, 4.912054
-0.6841405, -1.867475, 4.918725
-0.6888288, -1.867569, 4.924788
-0.6889975, -1.864609, 4.926433
-0.6962732, -1.866361, 4.935069
-0.6964436, -1.863372, 4.93673
-0.696614, -1.860383, 4.938391
-0.6993707, -1.859076, 4.942613
-0.7066553, -1.860671, 4.951335
-0.7145901, -1.862623, 4.960733
-0.7147646, -1.859563, 4.962434
-0.7278819, -1.864697, 4.977052
-0.7410052, -1.869726, 4.991728
-0.7521923, -1.873436, 5.004518
0.03315483, -1.382836, -1000
0.03315483, -1.382836, -1000
0.03315483, -1.382836, -1000
0.03315483, -1.382836, -1000
0.03315483, -1.382836, -1000
0.03315483, -1.382836, -1000
0.03315483, -1.382836, -1000
0.03315483, -1.382836, -1000
0.03315483, -1.382836, -1000
0.03315483, -1.382836, -1000
0.03315483, -1.382836, -1000
0.03315483, -1.382836, -1000
0.03315483, -1.382836, -1000
0.03315483, -1.382836, -1000
0.03315483, -1.382836, -1000
0.03315483, -1.382836, -1000
0.03315483, -1.382836, -1000
0.03315483, -1.382836, -1000
0.03315483, -1.382836, -1000
0.03315483, -1.382836, -1000
0.03315483, -1.382836, -1000
0.03315483, -1.382836, -1000
0.03315483, -1.382836, -1000
0.03315483, -1.382836, -1000
0.03315483, -1.382836, -1000
0.03315483, -1.382836, -1000
-0.9447738, -1.882632, 5.250997
-0.9450004, -1.878658, 5.253205
-0.945227, -1.874685, 5.255414
-0.9454536, -1.870711, 5.257622
-0.9587227, -1.873185, 5.273718
-0.9589523, -1.869159, 5.275956
-0.9676634, -1.869254, 5.287259
-0.981599, -1.871797, 5.304192
0.03315483, -1.382836, -1000
0.03315483, -1.382836, -1000
0.03315483, -1.382836, -1000
-1.273856, -1.99085, 5.627639
-1.274158, -1.985553, 5.630584
-1.27446, -1.980256, 5.633528
-1.267572, -1.971704, 5.628672
-1.267872, -1.966436, 5.631599
-1.268173, -1.961168, 5.634527
-1.283517, -1.962523, 5.653866
-1.307374, -1.967465, 5.682568
-1.307683, -1.962041, 5.685583
-1.316501, -1.960257, 5.697931
-1.316813, -1.954799, 5.700964
-1.317124, -1.94934, 5.703998
-1.317435, -1.943882, 5.707032
-1.341987, -1.948392, 5.736847
-1.342303, -1.942835, 5.739936
-1.360317, -1.944411, 5.762647
-1.369161, -1.942182, 5.775242
-1.396369, -1.947133, 5.808307
-1.396699, -1.941361, 5.811514
-1.414741, -1.942436, 5.834503
-1.434104, -1.94387, 5.85904
-1.434441, -1.937951, 5.86233
-1.397358, -1.918031, 5.823607
-1.397687, -1.912263, 5.826813
-1.353354, -1.890153, 5.779698
-1.353673, -1.884564, 5.782804
-1.353991, -1.878976, 5.78591
-1.363512, -1.876641, 5.799438
-1.363832, -1.871016, 5.802564
-1.354947, -1.862211, 5.795227
-1.355266, -1.856623, 5.798333
-1.355585, -1.851034, 5.801439
-1.339453, -1.839967, 5.78575
-1.331212, -1.831631, 5.779027
-1.331525, -1.826143, 5.782077
-1.331838, -1.820655, 5.785127
-1.357178, -1.823092, 5.816969
-1.357497, -1.817504, 5.820075
-1.36704, -1.814761, 5.833829
-1.367361, -1.809136, 5.836956
-1.333403, -1.793216, 5.800377
-1.325803, -1.785384, 5.794247
-1.326114, -1.779928, 5.797279
-1.326425, -1.774472, 5.800312
-1.334654, -1.771265, 5.812577
-1.334967, -1.765777, 5.815628
-1.310856, -1.753552, 5.790099
-1.311163, -1.748162, 5.793095
-1.311471, -1.742773, 5.79609
-1.319044, -1.739298, 5.807631
-1.335871, -1.738167, 5.830099
-1.336184, -1.732681, 5.833148
-1.34509, -1.729357, 5.846352
-1.353339, -1.7258, 5.858811
-1.353656, -1.720248, 5.861897
0.03315483, -1.382836, -1000
-0.4882315, -1.858973, 4.671818
-0.4883555, -1.8568, 4.673026
-0.4884794, -1.854626, 4.674234
-0.4924164, -1.855885, 4.678789
-0.4925413, -1.853696, 4.680005
-0.4939377, -1.85264, 4.682343
-0.5004225, -1.856086, 4.689185
0.03315483, -1.382836, -1000
-0.5140375, -1.863378, 4.70352
-0.5141674, -1.861101, 4.704786
-0.513024, -1.857718, 4.704915
-0.5131536, -1.855446, 4.706177
-0.5132831, -1.853175, 4.70744
-0.5146867, -1.851995, 4.709847
-0.5205511, -1.854604, 4.716278
-0.5206823, -1.852304, 4.717556
-0.5278257, -1.855917, 4.72518
-0.5279586, -1.853587, 4.726475
-0.5325559, -1.854984, 4.731829
-0.5326899, -1.852635, 4.733134
-0.5404807, -1.856611, 4.741432
-0.5495517, -1.861572, 4.750934
-0.5496895, -1.859155, 4.752277
-0.5530201, -1.859334, 4.756557
-0.5531586, -1.856904, 4.757907
-0.5545748, -1.855501, 4.760437
-0.5598257, -1.857154, 4.766524
-0.5599658, -1.854697, 4.767889
-0.5664988, -1.857299, 4.7752
-0.5717559, -1.858841, 4.781348
-0.5750966, -1.85884, 4.785727
-0.5752402, -1.856322, 4.787127
-0.5785833, -1.856281, 4.791528
-0.5838479, -1.857691, 4.797749
-0.5910357, -1.860528, 4.805805
-0.5950249, -1.860871, 4.810868
-0.595173, -1.858274, 4.812311
-0.601087, -1.860015, 4.819225
-0.6044404, -1.859791, 4.823727
-0.6045906, -1.857157, 4.825191
-0.6105107, -1.858789, 4.832165
0.03315483, -1.382836, -1000
0.03315483, -1.382836, -1000
0.03315483, -1.382836, -1000
-0.6245927, -1.857891, 4.851053
-0.6247476, -1.855177, 4.852561
-0.6249022, -1.852464, 4.854069
-0.6366158, -1.85795, 4.866782
-0.6367733, -1.855189, 4.868316
-0.6427129, -1.85648, 4.87548
-0.6428717, -1.853695, 4.877028
-0.6494582, -1.855359, 4.884859
-0.6669771, -1.86449, 4.903428
-0.6761445, -1.867762, 4.913868
-0.6814566, -1.868338, 4.920553
-0.6861279, -1.868437, 4.926627
-0.6862968, -1.865477, 4.928272
-0.6935458, -1.867237, 4.936926
-0.6937163, -1.864249, 4.938587
-0.6938866, -1.86126, 4.940248
-0.6966337, -1.859956, 4.944476
-0.7038918, -1.861559, 4.953217
-0.7117975, -1.86352, 4.962635
-0.711972, -1.86046, 4.964335
-0.725041, -1.865611, 4.978986
-0.738116, -1.870655, 4.993695
-0.7492621, -1.874377, 5.006513
0.03315483, -1.382836, -1000
0.03315483, -1.382836, -1000
0.03315483, -1.382836, -1000
0.03315483, -1.382836, -1000
0.03315483, -1.382836, -1000
0.03315483, -1.382836, -1000
0.03315483, -1.382836, -1000
0.03315483, -1.382836, -1000
0.03315483, -1.382836, -1000
0.03315483, -1.382836, -1000
0.03315483, -1.382836, -1000
0.03315483, -1.382836, -1000
0.03315483, -1.382836, -1000
0.03315483, -1.382836, -1000
0.03315483, -1.382836, -1000
0.03315483, -1.382836, -1000
0.03315483, -1.382836, -1000
0.03315483, -1.382836, -1000
0.03315483, -1.382836, -1000
0.03315483, -1.382836, -1000
0.03315483, -1.382836, -1000
0.03315483, -1.382836, -1000
0.03315483, -1.382836, -1000
0.03315483, -1.382836, -1000
0.03315483, -1.382836, -1000
0.03315483, -1.382836, -1000
-0.9411478, -1.883797, 5.253465
-0.9413744, -1.879824, 5.255674
-0.941601, -1.87585, 5.257882
-0.9418277, -1.871876, 5.260091
-0.9550483, -1.874366, 5.27622
-0.9552779, -1.87034, 5.278458
-0.9639577, -1.870445, 5.289783
-0.9778426, -1.873004, 5.306749
0.03315483, -1.382836, -1000
0.03315483, -1.382836, -1000
0.03315483, -1.382836, -1000
-1.269022, -1.992404, 5.630931
-1.269324, -1.987107, 5.633875
-1.269626, -1.98181, 5.636819
-1.262765, -1.973249, 5.631944
-1.263065, -1.967981, 5.634873
-1.263366, -1.962713, 5.637801
-1.278654, -1.964086, 5.657177
-1.302424, -1.969056, 5.685938
-1.302733, -1.963632, 5.688953
-1.31152, -1.961858, 5.701322
-1.311831, -1.9564, 5.704356
-1.312143, -1.950941, 5.70739
-1.312454, -1.945482, 5.710423
-1.336916, -1.950022, 5.7403
-1.337233, -1.944465, 5.743388
-1.355181, -1.946061, 5.766143
-1.363994, -1.943843, 5.77876
-1.391103, -1.948825, 5.811893
-1.391432, -1.943054, 5.8151
-1.409409, -1.94415, 5.838134
-1.428702, -1.945606, 5.862718
-1.42904, -1.939687, 5.866008
-1.392095, -1.919723, 5.827191
-1.392424, -1.913955, 5.830397
-1.348254, -1.891792, 5.783171
-1.348573, -1.886204, 5.786276
-1.348892, -1.880615, 5.789382
-1.358378, -1.878291, 5.802933
-1.358699, -1.872665, 5.80606
-1.349848, -1.86385, 5.7987
-1.350166, -1.858262, 5.801806
-1.350485, -1.852673, 5.804911
-1.342281, -1.844226, 5.798223
-1.326204, -1.83324, 5.782437
-1.326517, -1.827752, 5.785487
-1.32683, -1.822264, 5.788538
-1.352079, -1.824731, 5.820441
-1.352397, -1.819143, 5.823546
-1.361907, -1.816411, 5.837324
-1.362228, -1.810785, 5.840451
-1.328395, -1.794825, 5.803787
-1.320825, -1.786984, 5.797637
-1.321136, -1.781528, 5.800669
-1.321447, -1.776073, 5.803701
-1.329647, -1.772874, 5.815987
-1.32996, -1.767386, 5.819037
-1.321722, -1.759521, 5.812025
-1.313481, -1.751725, 5.804974
-1.31379, -1.746307, 5.807986
-1.314099, -1.740887, 5.810997
-1.330866, -1.739775, 5.833507
-1.331179, -1.73429, 5.836555
-1.340054, -1.730975, 5.849781
-1.348274, -1.727428, 5.86226
-1.34859, -1.721877, 5.865346
-0.4766368, -1.853034, 4.663658
-0.4767585, -1.8509, 4.664844
-0.4768801, -1.848766, 4.666029
-0.4814325, -1.85066, 4.671121
-0.4815552, -1.848508, 4.672318
-0.4892769, -1.853198, 4.680243
-0.4919351, -1.853283, 4.683707
-0.4983957, -1.856737, 4.690565
0.03315483, -1.382836, -1000
0.03315483, -1.382836, -1000
0.03315483, -1.382836, -1000
-0.5109514, -1.858384, 4.706326
-0.5110809, -1.856112, 4.707589
-0.5112104, -1.853841, 4.708851
-0.5126092, -1.852662, 4.711262
-0.5184519, -1.855279, 4.717707
-0.5185831, -1.852978, 4.718986
-0.5244298, -1.855523, 4.725471
-0.5258328, -1.85427, 4.727923
-0.5291424, -1.854606, 4.732125
-0.5292761, -1.852263, 4.733427
-0.5351307, -1.85467, 4.739988
-0.5397164, -1.855979, 4.745405
-0.5430322, -1.856207, 4.749667
-0.543169, -1.853808, 4.751
-0.5490322, -1.856065, 4.757646
-0.5523524, -1.856215, 4.761951
-0.5556742, -1.856339, 4.766271
-0.5558138, -1.85389, 4.767632
-0.5610484, -1.855494, 4.773762
-0.5675595, -1.858064, 4.781111
-0.5689762, -1.85657, 4.783697
-0.5691189, -1.854069, 4.785087
-0.5705366, -1.852559, 4.787682
-0.5776934, -1.855479, 4.795713
-0.5848536, -1.858341, 4.803778
-0.5849999, -1.855776, 4.805204
-0.5921651, -1.85855, 4.813317
-0.5961425, -1.858852, 4.818415
-0.5994833, -1.858643, 4.82292
-0.5996328, -1.856019, 4.824378
-0.6055306, -1.857669, 4.831361
-0.6114311, -1.859272, 4.83837
0.03315483, -1.382836, -1000
0.03315483, -1.382836, -1000
0.03315483, -1.382836, -1000
0.03315483, -1.382836, -1000
-0.6358575, -1.862898, 4.868831
-0.6360155, -1.860128, 4.87037
-0.6361734, -1.857359, 4.871909
-0.6382515, -1.855943, 4.875329
-0.6384098, -1.853166, 4.876873
-0.6468927, -1.856184, 4.886606
-0.6643464, -1.865335, 4.905218
0.03315483, -1.382836, -1000
-0.687744, -1.875329, 4.931262
-0.6879138, -1.872351, 4.932918
-0.6880836, -1.869373, 4.934573
-0.6882535, -1.866395, 4.936228
-0.6909889, -1.865125, 4.940444
-0.6911593, -1.862136, 4.942105
-0.6958218, -1.862101, 4.948269
-0.7011281, -1.862447, 4.955099
-0.7115729, -1.866084, 4.967121
-0.711748, -1.863014, 4.968828
-0.719631, -1.864878, 4.978324
-0.7352268, -1.871583, 4.995663
-0.7463318, -1.875319, 5.008508
0.03315483, -1.382836, -1000
0.03315483, -1.382836, -1000
0.03315483, -1.382836, -1000
0.03315483, -1.382836, -1000
0.03315483, -1.382836, -1000
0.03315483, -1.382836, -1000
0.03315483, -1.382836, -1000
0.03315483, -1.382836, -1000
0.03315483, -1.382836, -1000
0.03315483, -1.382836, -1000
0.03315483, -1.382836, -1000
0.03315483, -1.382836, -1000
0.03315483, -1.382836, -1000
0.03315483, -1.382836, -1000
0.03315483, -1.382836, -1000
0.03315483, -1.382836, -1000
0.03315483, -1.382836, -1000
0.03315483, -1.382836, -1000
0.03315483, -1.382836, -1000
0.03315483, -1.382836, -1000
0.03315483, -1.382836, -1000
0.03315483, -1.382836, -1000
0.03315483, -1.382836, -1000
0.03315483, -1.382836, -1000
0.03315483, -1.382836, -1000
0.03315483, -1.382836, -1000
-0.924588, -1.878272, 5.242098
-0.9248116, -1.874351, 5.244277
-0.9250352, -1.870431, 5.246456
-0.9382017, -1.873042, 5.262559
-0.9513739, -1.875547, 5.278722
-0.9516037, -1.871521, 5.28096
-0.9602519, -1.871636, 5.292306
-0.974086, -1.874212, 5.309307
0.03315483, -1.382836, -1000
0.03315483, -1.382836, -1000
0.03315483, -1.382836, -1000
0.03315483, -1.382836, -1000
0.03315483, -1.382836, -1000
0.03315483, -1.382836, -1000
-1.257957, -1.974794, 5.635218
-1.258258, -1.969526, 5.638145
-1.258558, -1.964257, 5.641073
-1.266, -1.962174, 5.651886
-1.266302, -1.956877, 5.65483
-1.266605, -1.95158, 5.657774
-1.2825, -1.953041, 5.678028
-1.282805, -1.94768, 5.681007
-1.283111, -1.942319, 5.683987
-1.299021, -1.943526, 5.704381
-1.324042, -1.948399, 5.735027
-1.324357, -1.942874, 5.738097
-1.349395, -1.947446, 5.76891
-1.358176, -1.94524, 5.781547
-1.385186, -1.950257, 5.814745
-1.385515, -1.944489, 5.817951
-1.385844, -1.93872, 5.821157
-1.404411, -1.940021, 5.845011
-1.404744, -1.934178, 5.848258
-1.414201, -1.931796, 5.86187
-1.396285, -1.91907, 5.844367
-1.396616, -1.913265, 5.847593
-1.369558, -1.897412, 5.819539
-1.369883, -1.891717, 5.822704
-1.353245, -1.879941, 5.806428
-1.353566, -1.874315, 5.809555
-1.344748, -1.865489, 5.802172
-1.345067, -1.8599, 5.805278
-1.345386, -1.854312, 5.808384
-1.337213, -1.845855, 5.801674
-1.321196, -1.83485, 5.785847
-1.321509, -1.829362, 5.788897
-1.321822, -1.823874, 5.791947
-1.346979, -1.82637, 5.823913
-1.347298, -1.820782, 5.827019
-1.356773, -1.818061, 5.840819
-1.357094, -1.812435, 5.843946
-1.315534, -1.794041, 5.797995
-1.315846, -1.788585, 5.801027
-1.316157, -1.783128, 5.80406
-1.316468, -1.777673, 5.807092
-1.324639, -1.774484, 5.819397
-1.324952, -1.768996, 5.822446
-1.316746, -1.761121, 5.815413
-1.308536, -1.753315, 5.808341
-1.308845, -1.747896, 5.811353
-1.309154, -1.742477, 5.814364
-1.325861, -1.741384, 5.836915
-1.326174, -1.735899, 5.839964
-1.335017, -1.732594, 5.85321
-1.343208, -1.729056, 5.86571
-1.343524, -1.723505, 5.868795
-0.4746897, -1.853659, 4.664984
-0.4748114, -1.851526, 4.66617
-0.4749331, -1.849392, 4.667356
-0.4769464, -1.848987, 4.67022
-0.4770685, -1.846845, 4.671411
-0.4847606, -1.851554, 4.679351
-0.4924564, -1.8562, 4.687326
-0.4976313, -1.85852, 4.693076
0.03315483, -1.382836, -1000
0.03315483, -1.382836, -1000
-0.5049596, -1.857975, 4.703056
-0.5050882, -1.85572, 4.704309
-0.5052168, -1.853464, 4.705563
-0.5186184, -1.862753, 4.718877
-0.5187503, -1.860442, 4.720161
-0.518882, -1.858131, 4.721445
-0.5221763, -1.858529, 4.725623
-0.5223088, -1.856205, 4.726915
-0.5249726, -1.856026, 4.730533
-0.5270045, -1.855293, 4.733581
-0.5271381, -1.85295, 4.734882
-0.532971, -1.855364, 4.741459
-0.5375398, -1.856679, 4.746887
-0.54021, -1.856387, 4.750569
-0.5403467, -1.853991, 4.7519
-0.5449202, -1.855221, 4.757375
-0.549496, -1.856414, 4.762871
-0.5528055, -1.856544, 4.767198
-0.552945, -1.854098, 4.768557
-0.5562568, -1.854189, 4.772905
-0.5595701, -1.854254, 4.777268
-0.5647891, -1.855798, 4.783449
-0.5649313, -1.853304, 4.784835
-0.5669788, -1.852301, 4.788032
-0.5753791, -1.856223, 4.797289
-0.5806067, -1.857619, 4.803552
-0.5807526, -1.855061, 4.804974
-0.5828053, -1.853963, 4.808223
-0.5848591, -1.852848, 4.811482
-0.5850058, -1.850275, 4.812912
-0.5940582, -1.854397, 4.822938
-0.6012061, -1.857019, 4.831159
-0.6032658, -1.855798, 4.834477
-0.6034168, -1.853151, 4.835948
-0.6073881, -1.85331, 4.841139
-0.6113613, -1.853437, 4.846347
0.03315483, -1.382836, -1000
-0.6333307, -1.86371, 4.870551
-0.6334887, -1.86094, 4.87209
-0.6336465, -1.858171, 4.873629
-0.6357174, -1.856758, 4.877055
-0.6358757, -1.853981, 4.878598
-0.6443272, -1.857008, 4.888353
-0.6617157, -1.86618, 4.90701
0.03315483, -1.382836, -1000
0.03315483, -1.382836, -1000
-0.6851961, -1.873224, 4.934768
-0.685366, -1.870246, 4.936423
-0.6855358, -1.867268, 4.938078
-0.6882616, -1.866002, 4.942301
-0.688432, -1.863013, 4.943962
-0.6930775, -1.862983, 4.950138
-0.7009222, -1.865016, 4.959566
-0.7087707, -1.866985, 4.969029
-0.7089458, -1.863914, 4.970736
-0.7167997, -1.865788, 4.980251
-0.7246571, -1.867599, 4.989803
-0.7408407, -1.874634, 5.007888
0.03315483, -1.382836, -1000
0.03315483, -1.382836, -1000
0.03315483, -1.382836, -1000
0.03315483, -1.382836, -1000
0.03315483, -1.382836, -1000
0.03315483, -1.382836, -1000
0.03315483, -1.382836, -1000
0.03315483, -1.382836, -1000
0.03315483, -1.382836, -1000
0.03315483, -1.382836, -1000
0.03315483, -1.382836, -1000
-0.8181456, -1.880104, 5.107785
-0.8183458, -1.876593, 5.109736
-0.818546, -1.873083, 5.111687
0.03315483, -1.382836, -1000
0.03315483, -1.382836, -1000
0.03315483, -1.382836, -1000
0.03315483, -1.382836, -1000
0.03315483, -1.382836, -1000
0.03315483, -1.382836, -1000
0.03315483, -1.382836, -1000
0.03315483, -1.382836, -1000
0.03315483, -1.382836, -1000
0.03315483, -1.382836, -1000
0.03315483, -1.382836, -1000
0.03315483, -1.382836, -1000
-0.9210104, -1.879422, 5.244534
-0.9212339, -1.875501, 5.246713
-0.9214575, -1.871581, 5.248892
-0.9300625, -1.871916, 5.260143
-0.9476997, -1.876728, 5.281224
-0.9479293, -1.872701, 5.283462
-0.9565462, -1.872827, 5.294829
-0.9703296, -1.875419, 5.311864
-0.9847649, -1.878213, 5.329667
-0.985003, -1.874038, 5.331987
0.03315483, -1.382836, -1000
0.03315483, -1.382836, -1000
0.03315483, -1.382836, -1000
0.03315483, -1.382836, -1000
0.03315483, -1.382836, -1000
0.03315483, -1.382836, -1000
0.03315483, -1.382836, -1000
-1.261167, -1.963728, 5.655178
-1.261469, -1.958431, 5.658122
-1.261771, -1.953133, 5.661066
-1.277608, -1.954613, 5.681359
-1.277914, -1.949252, 5.684338
-1.269801, -1.94029, 5.677882
-1.270104, -1.934963, 5.680842
-1.270408, -1.929637, 5.683802
-1.302466, -1.937498, 5.722544
-1.32676, -1.941901, 5.75265
-1.344583, -1.94347, 5.775532
-1.344903, -1.937845, 5.778658
-1.362089, -1.938942, 5.800924
-1.371497, -1.93683, 5.814415
-1.389994, -1.938189, 5.838294
-1.390325, -1.932384, 5.841521
-1.399746, -1.930049, 5.855135
-1.400079, -1.924207, 5.858383
-1.373131, -1.908173, 5.830341
-1.364362, -1.899081, 5.823077
-1.364687, -1.893387, 5.826242
-1.356561, -1.884642, 5.819665
-1.348432, -1.875965, 5.81305
-1.348753, -1.87034, 5.816176
-1.349074, -1.864714, 5.819303
-1.357852, -1.862002, 5.832248
-1.358175, -1.856343, 5.835393
-1.350036, -1.847838, 5.828682
-1.350357, -1.842212, 5.831809
-1.350678, -1.836587, 5.834935
-1.359466, -1.833703, 5.847976
-1.359789, -1.828043, 5.851121
-1.342517, -1.816832, 5.833597
-1.33371, -1.808403, 5.825965
-1.310556, -1.795641, 5.801385
-1.310867, -1.790185, 5.804417
-1.311178, -1.784729, 5.807449
-1.311489, -1.779273, 5.810482
-1.335293, -1.780646, 5.841391
-1.335609, -1.775095, 5.844477
-1.319604, -1.764933, 5.828129
-1.312081, -1.757267, 5.821832
-1.312392, -1.751813, 5.824863
-1.312702, -1.74636, 5.827894
-1.329351, -1.745252, 5.850505
-1.329665, -1.739733, 5.853572
-1.355478, -1.740786, 5.8873
-1.372801, -1.739476, 5.910903
-1.373125, -1.733784, 5.914066
-0.4727426, -1.854285, 4.666309
-0.4728643, -1.852151, 4.667495
-0.472986, -1.850018, 4.668681
-0.474992, -1.849615, 4.671551
-0.4751142, -1.847473, 4.672741
-0.4827773, -1.852192, 4.680701
-0.4904441, -1.856847, 4.688696
-0.4955997, -1.859173, 4.694459
0.03315483, -1.382836, -1000
0.03315483, -1.382836, -1000
-0.5029014, -1.858637, 4.704457
-0.5030301, -1.856381, 4.705711
-0.5031587, -1.854126, 4.706964
-0.5165095, -1.863431, 4.720313
-0.5166413, -1.86112, 4.721597
-0.5167731, -1.858809, 4.722881
-0.5200552, -1.859211, 4.727067
-0.5201879, -1.856886, 4.728359
-0.5228419, -1.856711, 4.731984
-0.5248666, -1.85598, 4.735036
-0.5250002, -1.853637, 4.736338
-0.5308113, -1.856058, 4.742929
-0.5353633, -1.857379, 4.748369
-0.5380238, -1.85709, 4.752057
-0.5381604, -1.854694, 4.753388
-0.5427171, -1.855929, 4.758875
-0.5472759, -1.857128, 4.764382
-0.5505733, -1.857262, 4.768717
-0.5507128, -1.854816, 4.770076
-0.5540125, -1.85491, 4.774433
-0.5573138, -1.854979, 4.778805
-0.5625135, -1.856529, 4.784998
-0.5626557, -1.854035, 4.786384
-0.5646958, -1.853034, 4.789586
-0.5730649, -1.856966, 4.798865
-0.5782732, -1.858369, 4.805141
-0.578419, -1.855811, 4.806562
-0.5804645, -1.854715, 4.809817
-0.5825111, -1.853603, 4.813081
-0.5826578, -1.85103, 4.814511
-0.5916764, -1.855163, 4.82456
-0.5987976, -1.857793, 4.832799
-0.6008502, -1.856575, 4.836122
-0.601001, -1.853928, 4.837593
-0.6049579, -1.854091, 4.842793
-0.6089165, -1.854223, 4.848011
0.03315483, -1.382836, -1000
-0.6308038, -1.864522, 4.872272
-0.6309618, -1.861753, 4.873811
-0.6311197, -1.858984, 4.87535
-0.6331832, -1.857572, 4.87878
-0.6333417, -1.854795, 4.880323
-0.6417617, -1.857833, 4.8901
-0.659085, -1.867026, 4.908801
0.03315483, -1.382836, -1000
0.03315483, -1.382836, -1000
-0.6824784, -1.874098, 4.936618
-0.6826482, -1.871119, 4.938273
-0.6828181, -1.868141, 4.939929
-0.6855342, -1.866878, 4.944159
-0.6857046, -1.863889, 4.945819
-0.6903332, -1.863865, 4.952006
-0.698149, -1.865907, 4.961454
-0.7059684, -1.867886, 4.970937
-0.7061436, -1.864815, 4.972643
-0.7139685, -1.866698, 4.98218
-0.7217969, -1.868518, 4.991751
-0.7379201, -1.875572, 5.009877
0.03315483, -1.382836, -1000
0.03315483, -1.382836, -1000
0.03315483, -1.382836, -1000
0.03315483, -1.382836, -1000
0.03315483, -1.382836, -1000
0.03315483, -1.382836, -1000
0.03315483, -1.382836, -1000
0.03315483, -1.382836, -1000
0.03315483, -1.382836, -1000
0.03315483, -1.382836, -1000
0.03315483, -1.382836, -1000
-0.8149424, -1.881133, 5.109966
-0.8151425, -1.877623, 5.111917
-0.8153428, -1.874113, 5.113868
0.03315483, -1.382836, -1000
0.03315483, -1.382836, -1000
0.03315483, -1.382836, -1000
0.03315483, -1.382836, -1000
0.03315483, -1.382836, -1000
0.03315483, -1.382836, -1000
0.03315483, -1.382836, -1000
0.03315483, -1.382836, -1000
0.03315483, -1.382836, -1000
0.03315483, -1.382836, -1000
0.03315483, -1.382836, -1000
0.03315483, -1.382836, -1000
-0.9174327, -1.880571, 5.24697
-0.9176563, -1.876651, 5.249149
-0.9178798, -1.87273, 5.251328
-0.9264534, -1.873075, 5.2626
-0.9440254, -1.877909, 5.283725
-0.944255, -1.873882, 5.285963
-0.9528406, -1.874018, 5.297352
-0.9665732, -1.876626, 5.314422
-0.9809554, -1.879437, 5.332261
-0.9811934, -1.875263, 5.334581
0.03315483, -1.382836, -1000
0.03315483, -1.382836, -1000
0.03315483, -1.382836, -1000
0.03315483, -1.382836, -1000
0.03315483, -1.382836, -1000
0.03315483, -1.382836, -1000
0.03315483, -1.382836, -1000
-1.256333, -1.965281, 5.658469
-1.256635, -1.959984, 5.661413
-1.256937, -1.954687, 5.664357
-1.272716, -1.956185, 5.68469
-1.273022, -1.950824, 5.687669
-1.26494, -1.941852, 5.681191
-1.265244, -1.936525, 5.684152
-1.265548, -1.931199, 5.687112
-1.297487, -1.939098, 5.725935
-1.321692, -1.94353, 5.7561
-1.339449, -1.94512, 5.779027
-1.33977, -1.939495, 5.782154
-1.356893, -1.940612, 5.804462
-1.366267, -1.93851, 5.817976
-1.384697, -1.939892, 5.841901
-1.385028, -1.934086, 5.845128
-1.394415, -1.931763, 5.858766
-1.394748, -1.92592, 5.862012
-1.367901, -1.909854, 5.833903
-1.359166, -1.900752, 5.826615
-1.359491, -1.895057, 5.82978
-1.351397, -1.886302, 5.823182
-1.343299, -1.877615, 5.816545
-1.343619, -1.871989, 5.819672
-1.34394, -1.866364, 5.822798
-1.352688, -1.863662, 5.835764
-1.35301, -1.858002, 5.83891
-1.344903, -1.849488, 5.832178
-1.345223, -1.843862, 5.835304
-1.345544, -1.838237, 5.83843
-1.354302, -1.835363, 5.851492
-1.354624, -1.829703, 5.854638
-1.337417, -1.818471, 5.83707
-1.328644, -1.810031, 5.829414
-1.305577, -1.797241, 5.804774
-1.305888, -1.791785, 5.807807
-1.306199, -1.786329, 5.81084
-1.30651, -1.780873, 5.813871
-1.330227, -1.782274, 5.844841
-1.330544, -1.776723, 5.847926
-1.314599, -1.766542, 5.831537
-1.307104, -1.758866, 5.825221
-1.307415, -1.753413, 5.828251
-1.307726, -1.74796, 5.831282
-1.324314, -1.746871, 5.853934
-1.324629, -1.741352, 5.857002
-1.350347, -1.742435, 5.890793
-1.367607, -1.741145, 5.914439
-1.367931, -1.735453, 5.917602
-0.4707956, -1.854911, 4.667635
-0.4709173, -1.852777, 4.668821
-0.4710389, -1.850643, 4.670007
-0.4730377, -1.850243, 4.672881
-0.4731598, -1.848101, 4.674071
-0.480794, -1.852829, 4.682052
-0.4896841, -1.858633, 4.691201
-0.4935681, -1.859826, 4.695842
-0.4949479, -1.858728, 4.69822
-0.4950752, -1.856497, 4.69946
-0.4964559, -1.855384, 4.701847
-0.4978373, -1.85426, 4.704239
-0.4979652, -1.852018, 4.705485
-0.5037379, -1.854737, 4.71193
-0.5057493, -1.854117, 4.714926
-0.507134, -1.852935, 4.717351
-0.507264, -1.850656, 4.718618
-0.5117886, -1.852161, 4.723969
-0.5163155, -1.85363, 4.729341
-0.5233569, -1.857203, 4.737078
-0.5234905, -1.854857, 4.738381
-0.5280233, -1.856223, 4.74381
-0.5313009, -1.856496, 4.748079
-0.5339514, -1.856218, 4.751769
-0.5340876, -1.85383, 4.753096
-0.5373689, -1.85404, 4.757399
-0.5437975, -1.856807, 4.764701
-0.5470826, -1.856951, 4.769041
-0.5472217, -1.85451, 4.770397
-0.5486202, -1.853087, 4.772956
-0.550649, -1.85216, 4.776123
-0.5507889, -1.849706, 4.777487
-0.5553395, -1.850759, 4.783089
-0.5592619, -1.851276, 4.788105
-0.5675988, -1.855232, 4.797399
-0.5677426, -1.852709, 4.798801
-0.5729319, -1.85411, 4.805094
-0.5762312, -1.854004, 4.809573
-0.5801629, -1.854357, 4.81468
-0.5803097, -1.851784, 4.81611
-0.5892944, -1.855928, 4.826182
-0.5963891, -1.858567, 4.834439
-0.5984344, -1.857351, 4.837767
-0.5985854, -1.854704, 4.839238
-0.6025277, -1.854872, 4.844448
-0.6064718, -1.855008, 4.849676
-0.6104177, -1.855113, 4.854922
-0.6105714, -1.852418, 4.85642
-0.628435, -1.862565, 4.875531
-0.6285928, -1.859796, 4.87707
-0.6325476, -1.859746, 4.882401
-0.6327064, -1.856962, 4.883949
-0.6436279, -1.861794, 4.896291
-0.660887, -1.870989, 4.915047
-0.6705534, -1.874729, 4.926228
0.03315483, -1.382836, -1000
0.03315483, -1.382836, -1000
0.03315483, -1.382836, -1000
-0.6826364, -1.870744, 4.944354
-0.6828068, -1.867755, 4.946015
-0.6829773, -1.864766, 4.947676
-0.687589, -1.864747, 4.953875
-0.6928374, -1.865112, 4.960743
-0.7031662, -1.868786, 4.972845
-0.7033413, -1.865715, 4.974552
-0.7085969, -1.865953, 4.981491
-0.7113141, -1.864506, 4.985831
-0.7114911, -1.861403, 4.987556
-0.7218361, -1.864791, 4.999815
-0.7353645, -1.87011, 5.015423
0.03315483, -1.382836, -1000
0.03315483, -1.382836, -1000
0.03315483, -1.382836, -1000
-0.7978127, -1.895375, 5.087125
-0.7980099, -1.891918, 5.089046
-0.798207, -1.888461, 5.090968
0.03315483, -1.382836, -1000
-0.8145232, -1.891093, 5.111604
-0.8147241, -1.887569, 5.113563
-0.8117391, -1.882163, 5.112147
-0.8119394, -1.878653, 5.114099
-0.8121395, -1.875142, 5.116049
-0.82573, -1.879373, 5.132261
0.03315483, -1.382836, -1000
0.03315483, -1.382836, -1000
0.03315483, -1.382836, -1000
0.03315483, -1.382836, -1000
0.03315483, -1.382836, -1000
0.03315483, -1.382836, -1000
0.03315483, -1.382836, -1000
0.03315483, -1.382836, -1000
0.03315483, -1.382836, -1000
0.03315483, -1.382836, -1000
0.03315483, -1.382836, -1000
0.03315483, -1.382836, -1000
-0.9223932, -1.882145, 5.260662
-0.9226187, -1.878191, 5.26286
-0.9228443, -1.874235, 5.265058
-0.940351, -1.87909, 5.286227
-0.9405807, -1.875063, 5.288465
-0.9536172, -1.877456, 5.304814
-0.9673003, -1.880062, 5.321929
-0.9771458, -1.880662, 5.334855
-0.9773839, -1.876487, 5.337175
0.03315483, -1.382836, -1000
0.03315483, -1.382836, -1000
0.03315483, -1.382836, -1000
0.03315483, -1.382836, -1000
0.03315483, -1.382836, -1000
0.03315483, -1.382836, -1000
0.03315483, -1.382836, -1000
0.03315483, -1.382836, -1000
0.03315483, -1.382836, -1000
0.03315483, -1.382836, -1000
0.03315483, -1.382836, -1000
0.03315483, -1.382836, -1000
-1.26008, -1.943414, 5.684501
-1.260383, -1.938087, 5.687461
-1.260687, -1.932761, 5.690422
-1.260991, -1.927435, 5.693381
-1.292819, -1.935242, 5.732356
-1.316941, -1.939605, 5.762638
-1.317257, -1.934051, 5.765725
-1.334957, -1.935519, 5.788775
-1.361037, -1.940192, 5.821537
-1.379399, -1.941594, 5.845508
-1.37973, -1.935789, 5.848735
-1.389083, -1.933476, 5.862395
-1.389416, -1.927634, 5.865643
-1.362671, -1.911535, 5.837464
-1.35397, -1.902421, 5.830153
-1.354294, -1.896727, 5.833318
-1.354619, -1.891033, 5.836483
-1.346554, -1.882302, 5.829844
-1.346877, -1.876642, 5.83299
-1.3472, -1.870982, 5.836135
-1.347523, -1.865322, 5.839281
-1.339448, -1.856763, 5.832546
-1.330724, -1.848052, 5.825012
-1.331043, -1.842464, 5.828118
-1.331361, -1.836875, 5.831224
-1.357542, -1.839784, 5.864965
-1.357866, -1.83409, 5.86813
-1.307091, -1.812032, 5.810557
-1.307404, -1.806546, 5.813606
-1.307716, -1.801061, 5.816654
-1.316444, -1.798166, 5.829755
-1.316759, -1.792646, 5.832822
-1.317074, -1.787127, 5.83589
-1.317388, -1.781607, 5.838958
-1.317703, -1.776088, 5.842025
-1.309593, -1.768151, 5.834945
-1.302128, -1.760466, 5.828609
-1.302439, -1.755012, 5.83164
-1.30275, -1.749559, 5.834671
-1.319277, -1.74849, 5.857364
-1.319592, -1.74297, 5.860431
-1.345216, -1.744084, 5.894287
-1.362413, -1.742814, 5.917975
-1.362738, -1.737123, 5.921139
-0.4694713, -1.856123, 4.669521
-0.4695932, -1.853987, 4.670708
-0.4697149, -1.85185, 4.671896
-0.4741998, -1.853764, 4.677034
-0.4743227, -1.851609, 4.678232
-0.4794343, -1.85404, 4.683969
-0.4833009, -1.855288, 4.688592
-0.4859214, -1.855367, 4.692092
-0.486047, -1.853165, 4.693316
-0.487421, -1.852087, 4.695687
-0.4875469, -1.84988, 4.696914
-0.4876728, -1.847672, 4.698141
-0.4927958, -1.849902, 4.70399
-0.4985461, -1.852641, 4.710442
-0.5036742, -1.854784, 4.716339
-0.5050541, -1.853603, 4.718767
-0.5051841, -1.851324, 4.720034
-0.5096918, -1.852835, 4.725396
-0.512325, -1.852692, 4.72902
-0.5124567, -1.850384, 4.730303
-0.5200986, -1.854478, 4.73866
-0.525866, -1.856916, 4.745279
-0.5272532, -1.855608, 4.747778
-0.5292672, -1.854816, 4.750877
-0.5294028, -1.852438, 4.752198
-0.5339245, -1.853703, 4.757697
-0.537195, -1.853896, 4.762021
-0.5373324, -1.851487, 4.76336
-0.5418592, -1.852664, 4.768907
-0.5463881, -1.853805, 4.774476
-0.5484096, -1.85288, 4.777648
-0.5485496, -1.850426, 4.779012
-0.5518278, -1.85048, 4.783412
-0.556991, -1.852006, 4.789651
-0.5634127, -1.854482, 4.797136
-0.5635561, -1.851967, 4.798533
-0.5668408, -1.851908, 4.802997
-0.5720124, -1.853288, 4.809318
-0.5790719, -1.856084, 4.817511
-0.579219, -1.853505, 4.818944
-0.5869126, -1.856694, 4.827804
-0.5939807, -1.859341, 4.836079
-0.5979062, -1.859554, 4.841277
-0.5999457, -1.858316, 4.844623
-0.6000975, -1.855653, 4.846103
